 0.293992950402775 -0.011924088127535 0.117452762385764
 0.1044824600752 -0.011924088127535 0.414325058699799
 -0.288211682102002 -0.0329288111950521 -0.439831334337536
 0.05157013209064 -0.011924088127535 -0.428238691144063
 0.2157380409013 -0.011924088127535 -0.206258752715748
 -0.232819089993259 0.00721904978898576 -0.0744225475456497
 -0.406561896519409 0.00908063493998214 -0.0341315730766152
 0.021101977610119 -0.0329288111950521 -0.484363852481827
 0.118222051615499 0.0178550031739028 0.449482287561767
 -0.186976261561233 -0.0329288111950521 -0.518811220342331
 0.0232243896858248 0.00644568046019912 -0.555337481060403
 0.298584044806031 0.00908063493998214 -0.390471161677609
 -0.184022428658505 -0.0012362854615629 -0.289122514232937
 -0.0730444610347819 0.00908063493998214 0.192721758534778
 0.072977414634754 0.0300853580074993 0.636591519832818
 -0.218146692597639 -0.000997153714478629 -0.442363829192473
 0.240487301962216 0.0300853580074993 0.0867974723302367
 0.123153257189969 -0.0035228517204107 0.0533794960745063
 -0.085480716264476 -0.011924088127535 0.913992117067086
 -0.276545821186847 -0.0329288111950521 0.0331397603475704
 -0.242831457925119 -0.0329288111950521 -0.369646895676092
 0.335658403850838 -0.0329288111950521 -0.0519930445042301
 0.0269325574610141 -0.011924088127535 0.373476080949285
 -0.122466841580126 -0.00691721451948538 -0.549537347884912
 -0.17208199005209 0.0300853580074993 -0.311944527745881
 -0.148752932833157 0.00908063493998214 -0.465212440717623
 -0.403951347610352 -0.00374001832798312 -0.281247719537502
 0.221853724316043 0.00908063493998214 -0.472827495772662
 -0.105101891837265 -0.011924088127535 0.0983618601503597
 0.00529479989269545 0.00908063493998214 -0.483842546479343
 0.202992329003456 -0.011924088127535 0.195736712782712
 -0.252749808771758 -0.011924088127535 0.0872215807655916
 0.287295680922896 0.00908063493998214 -0.0489990557181682
 -0.044458640638861 0.0043486173153332 0.290170330292966
 0.0272342353487805 0.0282352832501244 -0.365310370423914
 0.193511047735281 -0.011924088127535 0.0516083636805538
 0.140573873030144 -0.011924088127535 -0.477715589585109
 -0.34873429600284 -0.011924088127535 -0.094773300454646
 0.215885898822349 -0.0244720119480538 -0.500492882883035
 -0.403569261570491 0.00908063493998214 -0.283278919922218
 -0.323973888600501 -0.011924088127535 -0.388925165221939
 -0.115913452911977 0.0300853580074993 0.278732423756121
 0.311001265151575 0.00908063493998214 -0.0109218234466505
 -0.374841715914674 -0.011924088127535 -0.00649328076777749
 0.277139492002905 0.0178456950915394 -0.0654650137000572
 0.184582454699498 0.00908063493998214 -0.455568808797959
 -0.0791769139964816 -0.0329288111950521 0.270006451565036
 0.40425691127871 -0.0329288111950521 -0.0872467695061754
 0.262742349924926 -0.0142766171110969 -0.139559399288947
 0.216691588183551 0.00744973301822332 -0.499997521446912
 -0.137419493011064 0.00963229457712328 0.831489366241701
 -0.107707612018658 0.0300853580074993 0.756983099637968
 -0.143719073906967 0.0081228095974377 0.261521768053225
 -0.332450287606007 0.00908063493998214 -0.326591987887713
 -0.311695191582851 0.00908063493998214 -0.185475641262244
 0.214446072949067 -0.0329288111950521 -0.447155786779421
 0.0947624775869634 0.00908063493998214 -0.438140312149006
 0.0296132092137927 -0.0329288111950521 -0.518018036982461
 -0.00927283090700611 -0.0329288111950521 -0.512622391434035
 -0.423368556028844 -0.0279729787512111 -0.246573804012745
 0.152371831737059 -0.0329288111950521 0.22489508320451
 -0.328291834766367 0.00908063493998214 0.0846193165209058
 -0.300845766094214 -0.011924088127535 -0.275133731696051
 -0.29618773598726 -0.0329288111950521 -0.344127736332649
 0.0160853021480535 0.00908063493998214 -0.556038122155453
 0.110703511225725 0.0300853580074993 0.814493993795185
 0.308897801093803 0.0101925581047558 -0.410421156992727
 0.106323922388786 0.00908063493998214 -0.529374666824267
 -0.0690336142228932 0.0234626346932893 -0.552399527348357
 -0.0960864518271885 -0.011924088127535 0.285633721103486
 -0.00682621731696699 0.0190124494125455 -0.556603190253024
 0.263966748410651 0.0300853580074993 -0.384616214693985
 0.169134379749312 0.00908063493998214 -0.45308847753221
 0.0838910081903528 0.0300853580074993 0.305387294846121
 -0.076882552055082 -0.011924088127535 0.620348510005302
 0.193729771823796 -0.0329288111950521 0.021630668047665
 -0.154256974858251 -0.011924088127535 0.0804043911996943
 0.11687394828244 -0.011924088127535 0.383374471877591
 -0.133713887007874 0.0300853580074993 0.0924992420836952
 0.164367577789417 0.00908063493998214 0.0231207056408127
 -0.129065256312795 0.0300853580074993 0.56635765684353
 -0.0801898370191587 0.0300853580074993 0.903784929853932
 -0.229904376958886 0.00908063493998214 0.193632760525884
 -0.39672444650104 0.00908063493998214 -0.250219042290851
 0.0672376425958079 -0.011924088127535 0.841549071018325
 -0.107586429937973 0.0300853580074993 0.235047747281142
 -0.164746199188676 -0.0329288111950521 0.102167600394079
 0.0602009906896696 0.0300853580074993 0.81647157192024
 0.290758021374315 0.00908063493998214 -0.305566015745831
 0.116668811205547 -0.0103293418638948 0.890834137649975
 0.0491137908833694 0.00951731932343819 -0.55247826647206
 0.2282336716862 -0.011924088127535 0.0238123694082327
 -0.0475721148642212 -0.0329288111950521 -0.525273808255783
 0.263149182748678 -0.0329288111950521 -0.379426138226643
 0.239899138777657 0.0300853580074993 -0.0817207671961532
 -0.237002314129535 -0.0329288111950521 -0.0468840800179241
 0.214624525152986 -0.00101020065099559 -0.194824037241489
 0.0508999137061505 0.0300853580074993 0.648583310676312
 0.277117517084572 -0.011924088127535 -0.144029684239175
 0.127177024436947 0.0300853580074993 -0.333396819739081
 -0.100931778428201 0.00908063493998214 -0.492675860222718
 0.175720061884195 -0.0329288111950521 -0.377093459137293
 -0.0929645571639377 0.0300853580074993 0.126920656792906
 -0.421039964780491 0.0300853580074993 -0.11413653623362
 0.107876306504776 0.0300853580074993 0.900135503660831
 0.244914942442717 0.00908063493998214 -0.293236555174451
 -0.0504051271624276 -0.0131657617129979 -0.364600749680889
 0.0910396241384834 0.0300853580074993 -0.353225576141922
 -0.222103493694289 -0.0329288111950521 0.0174010214959341
 0.238372246955965 0.0300853580074993 -0.29965046909406
 -0.14543833041139 0.00908063493998214 0.233371145966569
 -0.0877966257850613 -0.011924088127535 -0.439214295813037
 0.243540263962095 0.00908063493998214 0.0385852546853423
 0.0369902717219808 -0.011924088127535 0.536524633129943
 0.418533873947237 -0.00280270661749186 -0.139308432149064
 -0.0609376764309127 -0.00453195714325434 0.0894194509156343
 0.118222051615499 0.00994886003948378 0.542236295225202
 0.0911321068406789 -0.011924088127535 0.807459188355777
 -0.167612570151319 0.0300853580074993 -0.31061117497579
 0.264448693416191 -0.0329288111950521 -0.00304897441233347
 -0.0367327044548609 0.0300853580074993 0.325259046796156
 0.0731739770232512 -0.011924088127535 0.195147646472164
 -0.0382843966434096 0.0066899685213654 0.290641381254515
 0.0303058368628486 -0.011924088127535 0.45553220763862
 -0.232526210221147 0.0300853580074993 -0.252146131040857
 0.134571859388399 -0.0142766171110969 0.175948389319016
 -0.167068898616913 -0.011924088127535 0.0973738486999362
 -0.397718353627501 -0.0329288111950521 -0.288771594427644
 -0.158622690475358 0.0300853580074993 -0.491757910828472
 -0.324641726237332 -0.00808439535038884 0.141325012676788
 0.223538036426239 -0.011924088127535 -0.257251697610345
 0.279117700163272 0.0300853580074993 -0.331656283043306
 -0.220331813047381 0.00908063493998214 0.144632623924667
 -0.30993536104519 -0.011924088127535 0.147190166060355
 0.196911840713454 0.000371813145877641 -0.241492883592345
 -0.128505971828222 -0.011924088127535 -0.428779847511602
 -0.0963007141651977 -0.011924088127535 0.777147970318657
 0.0487968824298746 0.0300853580074993 -0.415240760345007
 -0.0864441474528828 -0.0139863036462904 0.0820475020831713
 0.403506705034029 -0.000359691661263887 -0.0602595475851717
 -0.0761932420614533 0.0300853580074993 0.0992279187523369
 -0.337536324828439 -0.0329288111950521 -0.234716114821112
 0.327535444833709 0.00908063493998214 -0.247221200254837
 -0.223914885847461 0.00986640631293269 -0.224606412209512
 0.372117549155437 -0.0329288111950521 -0.219197216014599
 -0.162613266931808 0.0300853580074993 -0.34510188259585
 0.287271297080865 -0.011924088127535 0.0327422259786368
 0.10354464572292 -0.011924088127535 0.543854914794399
 0.0393952956666024 0.0279672284039305 -0.553739770846993
 -0.375958638032969 0.00908063493998214 -0.16068299900775
 -0.212731599132052 -0.011924088127535 -0.329088392750862
 0.101218738619828 0.00908063493998214 -0.528064672637861
 0.378221701921235 0.0300853580074993 -0.123769451482665
 0.264931506033155 0.00908063493998214 -0.323875666153907
 0.418476719453713 -0.0312323432337761 -0.143361669262793
 -0.434229980782976 0.00908063493998214 -0.15531741364311
 -0.0371007027629346 0.0291729276693567 0.903393061859854
 -0.262652762409334 -0.0329288111950521 0.105834771955997
 0.28982458895546 0.00908063493998214 -0.403652084695459
 0.110340210704226 0.0300853580074993 0.260913967461695
 0.241853218452921 0.0300853580074993 -0.184781919352716
 -0.135113229760778 -0.0329288111950521 0.0706403787416115
 -0.361964741774264 0.0300853580074993 -0.231792030486257
 0.38962244382239 0.00785753824950695 -0.00581944343055168
 -0.377240869048714 0.00908063493998214 -0.267450528001832
 -0.261066180589157 -0.000486670057721822 0.209958793760602
 -0.243257150875015 0.0300853580074993 0.144941628410703
 0.254088763212338 -0.0329288111950521 -0.025757094515695
 0.0576051755207257 0.0300853580074993 0.886051258115048
 0.167184774089957 0.00908063493998214 -0.357893756521918
 0.0308847398912713 0.0300853580074993 0.795112168158779
 -0.188279069187264 0.0172945394855523 -0.284052007410929
 -0.187958787357298 -0.00456203687197282 0.243790620015927
 0.175724486990623 -0.00200259111906604 0.00253639537080768
 0.0263969080154697 0.0109568473640121 -0.365425791816733
 0.193108413730886 0.0187500160841336 0.231372729115123
 0.267882242395555 0.00908063493998214 -0.0467207421554363
 0.130302654392225 -0.00301558784257139 -0.541179041716681
 -0.330465535718702 0.00908063493998214 -0.111668307351588
 -0.0877122713692051 0.0300853580074993 0.245527628988367
 0.271798218059166 -0.0142766171110969 -0.173821245745055
 0.024523409748038 0.00908063493998214 0.180575403835608
 -0.160512947976538 0.0300853580074993 0.113915775952808
 0.380415387730881 -0.011924088127535 -0.230845917298048
 0.300013356923231 0.00908063493998214 -0.228761791446756
 0.0935973806164487 0.0300853580074993 0.389068704808443
 -0.407401613799891 0.00908063493998214 -0.117401798787083
 -0.00182001126586948 0.00908063493998214 0.260440072751566
 0.405737129135971 -0.011924088127535 -0.197801679314206
 0.15121435548662 -0.011924088127535 -0.326517627008567
 -0.345838515768668 -0.0329288111950521 0.0619987272500211
 0.367438212933989 0.0300853580074993 -0.0629950609738174
 -0.298077034656723 0.0180673670518161 0.168830755477225
 0.368987218120226 -0.011924088127535 0.0388081452665153
 0.118222051615499 0.0238539217853371 0.739209792349153
 -0.428606166456589 0.0211829179458246 -0.166547895862653
 -0.28443252075687 0.00908063493998214 0.183102172586868
 -0.320736112265219 -0.011924088127535 0.032370358158339
 -0.256058235775984 0.00908063493998214 0.180850763629404
 0.348033777823303 0.00908063493998214 -0.0573226562477239
 0.113630877197028 -0.011924088127535 0.664531717649427
 0.0186814952362044 -0.011924088127535 0.364782087252616
 0.269055061994204 0.00908063493998214 -0.456102243263915
 -0.243576371965886 -0.0329288111950521 -0.391309047850867
 -0.259874864310428 -0.0329288111950521 -0.452485800767167
 -0.309344967737687 -0.0329288111950521 0.00601813012026046
 0.136055143218165 -0.0329288111950521 0.190211001817119
 0.398727640570088 -0.0329288111950521 -0.150256172817354
 -0.121410490420338 -0.0329288111950521 0.135399743640153
 -0.173143948205786 0.00908063493998214 0.0614642180576762
 -0.221657096036493 0.00908063493998214 0.0499764266865796
 0.29255551481672 -0.0329288111950521 0.0169878905916182
 0.178388897523538 0.00804578122210376 -0.00104272286390947
 -0.211275545703422 -0.00848625968735825 0.241122481272175
 0.0414630756996293 0.0300853580074993 0.632978174346007
 -0.0189053082892778 -0.0329288111950521 -0.528221923152025
 0.30820552581206 0.0300853580074993 -0.107214193194739
 -0.0781154746702702 0.0300853580074993 -0.391748003222642
 -0.149870201521806 -0.011924088127535 -0.501365216030342
 -0.259294663395331 -0.006673745608938 -0.484342369120987
 0.0215311573769657 0.00908063493998214 0.249605852743586
 -0.307392896040257 0.00908063493998214 0.12201419170489
 0.114948043293402 0.0290544430340525 -0.537749468594127
 0.105478028939837 0.00908063493998214 -0.522066169819265
 0.123456910293176 -0.011924088127535 0.206096794948102
 0.175370426184471 0.00908063493998214 -0.288721928578139
 0.277751044434266 -0.0142766171110969 -0.111713505591445
 -0.0964149054961248 0.0300853580074993 0.468060969616644
 -0.38910860986964 -0.011924088127535 -0.0148213404020758
 -0.219998429148831 -0.011924088127535 0.170618280286772
 -0.103166121900897 0.0300853580074993 0.246813942685392
 -0.373513781516883 -0.011924088127535 -0.223634792726744
 0.106947396616627 0.0300853580074993 0.678248438151539
 -0.22776108955425 -0.0145663784730154 -0.214594839676419
 0.219021066175209 0.0300853580074993 0.0943041972077567
 0.0831924991561616 -0.011924088127535 0.779533618304479
 0.231973537906363 0.00908063493998214 0.0820246033384368
 0.0577832666786427 -0.011924088127535 0.185327261507671
 -0.286057752893556 -0.011924088127535 -0.129508459879777
 0.0742954747550479 -0.0329288111950521 0.222495739086555
 -0.026766616563754 0.0300853580074993 0.821959121978655
 -0.231435594970634 -0.0329288111950521 -0.476232927039117
 -0.214461210993676 -0.014545503409148 -0.0282890441290409
 -0.390125449382576 0.00908063493998214 0.024723361809409
 0.251959899200463 -0.011924088127535 0.126005975999135
 -0.148194031333703 -0.0329288111950521 0.237788157388684
 0.318945284871196 0.00908063493998214 -0.365597664426416
 -0.326717810642618 0.00908063493998214 -0.367480207720126
 -0.389927244357613 -0.011924088127535 0.0249671343424182
 0.34810943932967 -0.0329288111950521 0.0581534920781596
 0.221989333208352 0.00511641392503996 -0.128791790311642
 0.237996829243475 0.0300853580074993 -0.13411595566496
 -0.207123512158377 -0.00125755754843647 -0.507303005424802
 0.0572741773589715 -0.0329288111950521 0.200093835359276
 0.0689623687988317 0.00908063493998214 0.130913058033367
 0.161754634629601 -0.0329288111950521 -0.412306871685126
 -0.177573618798069 -0.0329288111950521 0.108278227371621
 0.340118994691532 0.00908063493998214 -0.286139355924308
 -0.193579750242677 -0.011924088127535 0.0047827667414059
 -0.0642179348980968 0.00908063493998214 -0.461113515077967
 -0.393775133158044 0.0300853580074993 -0.250229207728497
 0.0297179246816827 -0.011924088127535 0.923377237505545
 -0.169543184685121 0.00908063493998214 -0.419042152109709
 0.0332573318358788 0.0300853580074993 0.139435168693761
 -0.12844873166125 -0.0104255165322199 0.0623257099489124
 0.206458641530331 0.0192027672282972 -0.0529202906680235
 0.0475631750086748 0.0300853580074993 0.741276478301322
 -0.323347410946935 0.026539180996107 -0.0566887802640465
 -0.428573271647547 0.0274816705500555 -0.10630087716106
 0.247735903929946 0.0300853580074993 -0.117221080983521
 0.378334295153758 0.0300853580074993 -0.0335046960901522
 -0.395977138463532 0.00908063493998214 -0.278548145587461
 -0.309610137870623 0.00908063493998214 -0.387871857075745
 0.261864954230342 0.0161841605059741 -0.457112561933536
 0.362466616707134 -0.0329288111950521 -0.304770930066802
 -0.232576939476965 0.00908063493998214 0.209474128179883
 -0.006332299422012 -0.0329288111950521 -0.513674982321318
 0.00328166632562041 0.0300853580074993 0.690875450318337
 -0.309125824501157 -0.011924088127535 0.108034283059369
 0.386315997824437 0.000190150343446475 0.00381086962533261
 0.0788318677954273 0.00326700888622552 0.0776366439332169
 0.125747469046214 0.00488927700242485 0.0515394931651761
 -0.223404728952099 0.00908063493998214 -0.255428862907493
 0.361184614842079 -0.0329288111950521 -0.28041092484181
 -0.400288059285906 0.0300853580074993 -0.164958300930173
 -0.30643180689932 0.0300853580074993 -0.378308520791231
 0.118222051615499 -0.00774611574376893 0.399396400513673
 -0.260257847166867 0.0300853580074993 -0.403991502356324
 0.196684952559766 -0.011924088127535 0.0503784702854217
 -0.106677509827491 -0.0329288111950521 0.192498012523751
 -0.0894984506633727 0.0230727940152121 0.0809374830278257
 -0.434665416971093 0.00908063493998214 -0.171187296226635
 -0.119832116051807 -0.011924088127535 -0.434586739790232
 0.231955055598196 -0.011924088127535 -0.0353536097688898
 0.0308398429521598 -0.011924088127535 0.0980891733085525
 -0.112491084723092 0.0185812054136286 0.0710281844956925
 0.267308557370538 -0.011924088127535 0.0728814220019113
 0.404501888806081 0.00749056788839759 -0.0277625522953563
 -0.115487025908549 -0.011924088127535 0.601163344027266
 0.0122272100750255 -0.011924088127535 0.750156184503012
 -0.33469048376893 0.00908063493998214 -0.212376213518271
 0.354583824364197 -0.0121784526787851 -0.361616454807139
 0.224532265659923 0.0300853580074993 -0.0984311944122961
 0.00194504220673289 0.0300853580074993 0.396345447618261
 -0.0582600063408716 -0.011924088127535 0.268374473445834
 0.391405558880338 -0.0329288111950521 0.010721512069183
 0.320113438994326 0.00908063493998214 -0.146579273260251
 0.00280333746111886 0.0300853580074993 -0.372188470379621
 0.233887402319839 -0.011924088127535 -0.35331632799674
 -0.067134167254689 -0.011924088127535 -0.540644605803236
 0.0740108975527969 0.0300853580074993 0.245349228636992
 0.260712803352586 -0.0142766171110969 -0.113786641922587
 0.0745957886959074 0.0300853580074993 -0.489964367333784
 -0.319680406200922 0.0266410638178976 -0.0137089119591111
 -0.128677637866119 -0.0329288111950521 -0.398632765211749
 -0.266117353796399 0.00908063493998214 -0.343308231533422
 -0.257209863747086 -0.011924088127535 -0.147652236311802
 0.00786762133006772 -0.0329288111950521 0.178251735211022
 -0.159055157878 -0.0243389226286615 -0.313596439985514
 0.285647534210345 -0.011924088127535 0.000495669984447097
 0.118222051615499 0.0132234721005743 0.813123982003751
 0.250196333527967 0.00908063493998214 -0.215339876815714
 0.29543311502588 0.0300853580074993 -0.179731338087392
 -0.16543141205343 -0.0329288111950521 0.185697854034642
 0.206349023119141 -0.00967305850049537 -0.0525451134476164
 -0.151636608068815 0.00908063493998214 0.125744306600137
 0.326419037389537 0.0300853580074993 -0.243261377886264
 0.0409624976624498 -0.011924088127535 0.866912218078719
 -0.265033852332927 -0.011924088127535 0.121778901507271
 -0.00538134142179934 0.0300853580074993 0.444440284026852
 -0.1191933404189 -0.011924088127535 0.484268847229819
 -0.137419493011064 0.0215391113840405 0.475240875889349
 -0.21787411906678 0.00908063493998214 -0.401801239170285
 0.000152029903737851 0.0300853580074993 0.443770149825514
 0.192650956785232 -0.011924088127535 0.0174382001961996
 0.184300445039729 0.00908063493998214 -0.358553855262832
 -0.36474527852326 -0.0329288111950521 -0.239340340538944
 0.225165984885739 -0.0142766171110969 0.0100022768491726
 0.0143346341776228 0.00908063493998214 0.253564483311869
 -0.335839515377862 0.00908063493998214 0.132524068812227
 0.414247379937532 -0.00927892208054441 -0.197033226387311
 -0.103311940034162 -0.011924088127535 0.424312365334184
 -0.261033966052432 0.00908063493998214 -0.172071499831629
 0.0315805458473602 0.00908063493998214 -0.505655444502999
 -0.200107389912316 0.00908063493998214 0.111036915377325
 -0.046807165754508 0.0300853580074993 0.829076712295332
 0.2196827886874 -0.011924088127535 0.10256359945528
 0.246827384484232 0.00908063493998214 0.0225341590188047
 -0.282992007706566 0.0300853580074993 -0.39207359664004
 0.357644962664583 -0.0329288111950521 -0.009808466557811
 0.319119816304261 0.00908063493998214 -0.232053615758635
 0.0848832920119421 -0.011924088127535 0.529401552326425
 -0.181512273359127 0.0300853580074993 -0.343872479324643
 -0.298134851626867 -0.0329288111950521 -0.282664430747553
 -0.414841665770801 0.000242095182035561 -0.025867074617446
 0.279649014217641 -0.0329288111950521 -0.0151150038699402
 -0.0589248420882072 0.0300853580074993 0.58713383519435
 0.307078052339877 -0.011924088127535 -0.227847279311
 0.0207283880270407 -0.011924088127535 0.205837668950148
 0.234993725669551 -0.011924088127535 0.0135284596457771
 0.0440206393439739 0.0300853580074993 -0.470139880894109
 -0.103210907667171 0.0300853580074993 0.505829605977995
 0.0634565659445811 -0.011924088127535 0.756597816665347
 0.19534096578455 -0.0329288111950521 -0.26567069737238
 0.133308700545878 -0.0329288111950521 -0.425314902880274
 0.299991359745012 -0.011924088127535 -0.0879555592068117
 -0.002841264563899 0.0300853580074993 0.949213006829615
 -0.2309501556343 -0.011924088127535 -0.370923033806382
 0.150337263079029 -0.0329288111950521 0.0653652095950482
 -0.135187876680925 -0.011924088127535 -0.342975233831301
 0.327121077898924 -0.0329288111950521 -0.105238705455799
 0.027830592030063 0.0300853580074993 0.0949799818892078
 0.260218059099446 -0.000669267391615605 -0.0688133488550948
 0.3595217444275 -0.0329288111950521 -0.0545792157767641
 0.285079970448434 -0.0329288111950521 -0.29158878644896
 -0.225963950676919 -0.0315581988977719 0.232892178471205
 0.0350371423540473 0.0300853580074993 -0.524519970810853
 -0.326462239517916 -0.0329288111950521 0.0631097709668638
 -0.012131407905597 0.0300853580074993 -0.515967337814538
 -0.00922314322955547 -0.011924088127535 0.272418377494676
 0.246559382755908 -0.0329288111950521 -0.364189918587072
 -0.241116677001682 -0.011924088127535 -0.106919089557824
 0.0966986794811146 -0.0329288111950521 -0.43112397719905
 0.276139119370249 0.0266407978229693 -0.02161871051958
 -0.0938387828618037 0.00137285500821962 0.0793085162533221
 0.0816387536342723 0.0300853580074993 0.397752933591966
 0.0304235250789046 0.0300853580074993 -0.462065549597779
 -0.182258932003391 -0.011924088127535 0.181067880703421
 0.334681247799472 0.0300853580074993 -0.105258181057426
 0.155219222234703 0.0265987873710326 0.026321317217941
 -0.33174300329879 0.0300853580074993 -0.177368541895916
 0.365617971931745 0.00908063493998214 -0.334441860160594
 0.255709977898416 -0.0329288111950521 -0.0371350563413385
 -0.160229799581511 0.00908063493998214 -0.44371415245711
 -0.00374985950212572 -0.00378160381042851 0.129306130889356
 -0.137419493011064 0.0245898649029914 0.837564425083202
 -0.26347990144651 -0.011924088127535 0.0754139041257068
 -0.0148074403280007 0.0300853580074993 0.824561052987485
 -0.0579864616906303 -0.0329288111950521 0.108441949285766
 0.0439109780254918 0.0126991381610396 -0.361993913759348
 -0.18053146810151 0.0300853580074993 -0.301494087415422
 0.00525845175564711 0.0300853580074993 0.83208994185401
 -0.0267131584440646 0.0300853580074993 0.766652730616356
 -0.274606802412412 -0.011924088127535 -0.177190131631966
 0.118222051615499 0.00675774946625616 0.315456757287696
 -0.312432862864213 0.0300853580074993 0.0413033950531817
 0.0974611791353246 -0.011924088127535 0.335921983399563
 -0.253030880124819 -0.0329288111950521 -0.127266861154961
 -0.380937948852766 -0.011924088127535 -0.213506799112215
 -0.137419493011064 0.00667948589236135 0.41064307035442
 -0.10523524945223 -0.0329288111950521 -0.380816328909506
 0.275375063389601 -0.0329288111950521 -0.31026392560819
 0.29890169807183 -0.0329288111950521 -0.265102322350761
 -0.0752668488666707 -0.011924088127535 0.721932384979235
 -0.234507528697924 -0.011924088127535 -0.203486182127734
 0.228989751390595 -0.011924088127535 -0.423984807909935
 -0.195812851781788 -0.0329288111950521 0.0328641704749398
 -0.0901589243562622 -0.011924088127535 0.374781346453474
 -0.0418548675482795 0.0300853580074993 0.253867203874628
 -0.38118820664552 0.00908063493998214 0.015190567164697
 -0.185876673341103 0.0171429500291996 -0.286861360709869
 0.118222051615499 0.0143981839556718 0.360748260333945
 0.0583555416496904 -0.011924088127535 0.813951173162359
 -0.373437861028031 0.00908063493998214 -0.0789054082748655
 0.0372305569323315 0.0300853580074993 0.0961107936929172
 -0.400883161406865 0.0300853580074993 -0.00154898193555739
 0.276716635683602 -0.0142766171110969 -0.00243017441948624
 0.174281890002933 0.00908063493998214 0.101576427785145
 0.114943634186502 -0.011924088127535 0.156144287610951
 0.18746193221079 0.00908063493998214 0.0582075485616299
 0.384779851685319 0.00908063493998214 0.0236234731477553
 0.243502731761441 0.00908063493998214 -0.119171853579085
 0.295653261030942 0.0300853580074993 0.117816038923037
 -0.065586146157899 -0.011924088127535 -0.461445262212127
 0.300828731657057 -0.0142766171110969 -0.188169371555983
 -0.118571640114368 0.0300853580074993 0.799473901557528
 -0.035182505123481 0.00908063493998214 0.264262599237473
 0.169452159588792 0.0251034752846991 -0.28363046919821
 -0.059854444810058 -0.0329288111950521 0.120435122671919
 0.161049500018053 0.00908063493998214 -0.419940238286068
 -0.353675699644402 -0.0329288111950521 -0.136393901260516
 -0.198301178476399 -0.00718483791553096 -0.270997535747191
 -0.302152116458475 -0.00745835844161394 0.17603022801455
 0.0558733495488505 0.00908063493998214 -0.530708144841086
 0.286479436928587 0.00908063493998214 -0.0528259942047139
 -0.155131687443719 -0.011924088127535 0.179796339432325
 0.127617905151927 0.0300853580074993 0.0613399096105455
 0.083219513944096 -0.011924088127535 0.839894274863392
 0.113301376698483 -0.0329288111950521 0.108615043067755
 -0.205213612794188 0.00908063493998214 0.228288088706474
 0.197290631140688 0.0300853580074993 0.133408536316404
 -0.150318698713618 -0.0114247319811603 0.0475434124047178
 -0.137419493011064 0.0189974036499654 0.602418371896349
 0.316240867116507 0.00908063493998214 -0.401359242097687
 0.157392290469187 0.0300853580074993 0.0522805580923267
 -0.224359531174587 0.0300853580074993 -0.225778380473436
 0.0791403746031503 -0.011924088127535 0.715262013716773
 -0.36409667932664 -0.011924088127535 -0.171371412191068
 -0.202830677957225 0.00908063493998214 -0.371490315501985
 -0.342350758268386 -0.0329288111950521 -0.0826929426839452
 0.107538933009019 0.00908063493998214 0.169971276357942
 0.014021378931708 0.0300853580074993 0.343175199771086
 0.12757487485195 0.00908063493998214 -0.419309520234453
 0.195723086216401 0.00908063493998214 0.173375759597317
 0.0920121626000271 -0.011924088127535 0.315129053167348
 -0.124928866279756 0.0300853580074993 0.282312888362207
 -0.211734504175596 0.0276380822310713 0.231691089079777
 -0.200957832715888 0.00908063493998214 0.186344745492055
 0.23519284593303 -0.011924088127535 0.130830752039205
 -0.231522285561676 -0.0329288111950521 -0.225549845272024
 0.226939376608115 -0.0329288111950521 -0.14564402317619
 0.0879132377172139 -0.0329288111950521 0.245598872027164
 0.241144878995917 -0.011924088127535 -0.465852098465853
 0.0604262626244583 -0.0329288111950521 0.276476164855944
 -0.30940316574196 -0.011924088127535 -0.368960601537376
 0.347048203093103 -0.011924088127535 0.0536493046783023
 0.0341822286276776 0.0300853580074993 0.725507955496769
 0.184475997784687 -0.00878543309800758 -0.263148444806796
 0.125107939787052 0.00908063493998214 -0.331565070623047
 -0.111205818318582 0.00908063493998214 0.213863320172845
 -0.0351640507451839 -0.0329288111950521 0.104142388931315
 -0.0325576551581029 -0.011924088127535 0.516759747986304
 0.225033202300307 0.00908063493998214 0.180848483219361
 0.339756861406714 0.000337908459493813 -0.0430092794747843
 -0.304220717977233 -0.011924088127535 -0.190187255615364
 0.354113912258492 -0.0329288111950521 -0.319136766103038
 -0.109834936157578 -0.011924088127535 0.681437498490252
 -0.226672967240266 -0.011924088127535 0.199761327273922
 -0.0268065674998478 0.00908063493998214 -0.380536956040429
 -0.271357776768095 -0.011924088127535 0.0635041280013199
 -0.207373094674335 -0.0329288111950521 0.193572099876144
 -0.112890132539509 -0.011924088127535 0.126209018105918
 0.302718298924315 -0.0329288111950521 -0.391314733633733
 -0.239285519751105 -0.000870645184594897 -0.166820426218054
 0.117674092838984 0.00908063493998214 0.164129741808904
 0.015424332506977 0.0300853580074993 0.293970653467687
 0.0243842096765798 -0.011924088127535 0.438521732815767
 -0.0818582709306479 0.0300853580074993 0.712127436735683
 -0.0663978594525409 0.0300853580074993 0.380914486640858
 0.273646706082747 -0.0329288111950521 -0.267058428939543
 0.0488353468052605 0.0300853580074993 0.742269488732808
 0.0903862230801047 -0.0142766171110969 0.178368072875914
 -0.237938766966887 -0.0329288111950521 -0.210287586032546
 -0.0416404697279386 0.00908063493998214 -0.43857502475849
 -0.408843723083836 -0.0329288111950521 -0.249044380200355
 -0.0937308501645042 -0.0329288111950521 0.14544594034275
 -0.365482096392704 0.00908063493998214 0.0999032656567703
 0.261146210986144 -0.0329288111950521 -0.414389300836252
 -0.271813162816957 -0.011924088127535 -0.265793437997344
 -0.170915183952139 -0.0329288111950521 -0.417818321089248
 0.0143552270945578 -0.011924088127535 -0.400647818541414
 0.080103824803262 0.0300853580074993 0.18046454606079
 0.298532180579221 -0.0329288111950521 -0.416392415769187
 -0.103899526533559 -0.011924088127535 0.248344691681169
 -0.0363225159106569 -0.0329288111950521 -0.405700172388473
 -0.21750967705016 -0.0329288111950521 -0.507478922852016
 0.0559943502768415 -0.011924088127535 0.646052702854539
 -0.104786002574763 -0.011924088127535 0.85664662207211
 -0.160922684444529 -0.0329288111950521 0.180644520526199
 -0.251097295741881 -0.011924088127535 -0.225310512539554
 0.0227299090843007 -0.011924088127535 0.649542631776711
 0.0335625504835464 -0.00485293816390627 -0.364210356266932
 -0.0898965145892284 -0.011924088127535 0.838881345521865
 0.136271784845802 -0.0329288111950521 -0.513227864697821
 0.174995886911554 0.00908063493998214 -0.450445032096316
 0.1037232799026 -0.011924088127535 0.479967492143251
 0.106009890062498 -0.0329288111950521 0.078848217890929
 0.26325605338105 0.00908063493998214 -0.403727098454116
 -0.284821932904827 0.0300853580074993 -0.243635243328529
 -0.0762834710244475 0.00908063493998214 0.200456461969481
 -0.437391417951114 0.00224978787087324 -0.1538930463106
 0.314952478973075 0.0300853580074993 0.0543124609015223
 0.313922475778004 -0.011924088127535 -0.00300273707527333
 -0.33428187124363 0.0011551576071415 -0.403079332921065
 0.0873338347057867 0.00908063493998214 -0.402877308374957
 0.19314737892092 0.0300853580074993 0.163849808439084
 0.0457880378918392 -0.0329288111950521 -0.555737386620512
 0.101438165966559 -0.011924088127535 0.229379430759676
 0.094385062932743 -0.011924088127535 0.314579446008988
 -0.2235268945213 -0.00123070471568678 0.23430164917497
 -0.137419493011064 0.00896089815935225 0.681192890993401
 -0.358522387799042 0.0224354863773492 -0.370475337457393
 -0.340918975400397 0.0300853580074993 -0.389286763151491
 0.118222051615499 -0.0113387515604767 0.388814445271287
 -0.0537401052281004 -0.011924088127535 0.868791923462448
 -0.165982643655558 0.0300853580074993 -0.469541916281109
 0.213932590674928 0.00720161147931336 -0.197593958235647
 0.0890071386310147 -0.011924088127535 0.902417040295275
 -0.34581486205696 0.00908063493998214 -0.00339030011261543
 -0.0484253577537534 0.00254840382615933 0.2898365891524
 0.0823132355304284 0.0300853580074993 -0.44945873021157
 0.3450173959305 0.00070350809425357 0.0886281490259039
 0.234925747010022 -0.0329288111950521 -0.424664960484578
 -0.267014897522972 -0.0329288111950521 -0.187289790835746
 0.203581536959822 0.00611948719562198 0.225416444824068
 0.294294288992582 0.00908063493998214 -0.38761933044213
 -0.0706140073313613 0.00797304070721227 0.983866767125354
 -0.408724794217725 0.0300853580074993 -0.0244109065544748
 0.405511281441203 0.00280817054472533 -0.20095749130271
 0.207816099085064 0.00908063493998214 -0.32669872489752
 -0.0412930350806477 -0.011924088127535 -0.55018243712602
 -0.137203042773821 -0.0329288111950521 -0.443882122439659
 -0.369805399354771 0.0300853580074993 -0.116030601546175
 0.263031931411109 -0.011924088127535 -0.202519068944978
 -0.221616710268665 -0.0329288111950521 0.166444822674561
 0.117366595831416 0.00908063493998214 0.244564588734079
 0.203572650949637 -0.011924088127535 0.0729803941800398
 0.259109708111988 -0.011924088127535 -0.36424285453405
 0.201757668533242 0.00908063493998214 0.0927851699706753
 -0.194600531447273 0.00908063493998214 -0.335508257230452
 -0.0946182507622982 -0.011924088127535 0.403405612513424
 -0.186764799948948 0.0191867365457027 -0.349308804159342
 -0.378963484902957 0.00908063493998214 -0.170048003321395
 -0.0604028346729589 0.00908063493998214 0.26385549456571
 0.330912298844701 -0.011924088127535 0.05441314272969
 0.379160885342193 0.00908063493998214 -0.270574356657593
 -0.0144283911154937 -0.00783912694740095 0.0951046755854346
 0.333254768278458 0.0300853580074993 -0.0866806210702804
 -0.177070442834821 0.00908063493998214 -0.401909014558214
 0.275772887099203 -0.0329288111950521 -0.393711341402084
 0.0810553782633448 0.0300853580074993 -0.463658539559309
 -0.0633804565451717 0.0300853580074993 0.351376895813413
 -0.418285778320868 0.00908063493998214 -0.0266613747713862
 0.205879304168935 0.00908063493998214 0.0446660439808069
 0.354937439973625 -0.011924088127535 -0.109542185808303
 0.393210914542213 -0.011924088127535 -0.211677681502547
 -0.390559918635897 -0.0329288111950521 -0.168829576849887
 -0.292983486805946 -0.011924088127535 -0.252922289423459
 0.32216484484766 0.0300853580074993 -0.0802068639886851
 -0.243877490375093 0.00908063493998214 -0.395526242796233
 -0.0811298943512641 -0.0156689969608741 0.0838772677798832
 -0.374612280586108 -0.0107207147105628 -0.344472533964387
 -0.218468319656579 0.00908063493998214 -0.261853121862766
 0.155216662215301 0.00908063493998214 -0.338429904915483
 0.147708182284651 -0.0329288111950521 0.180657149099672
 0.266008652679932 -0.0329288111950521 -0.216185891324503
 0.184534428707015 -0.0020616270277471 -0.0101052249977192
 -0.226171612197992 0.00278351293096818 0.232774713576917
 0.131198252505531 -0.011924088127535 0.0649808934824231
 -0.0555323674041621 -0.011924088127535 -0.411371311673921
 0.0599439005267788 -0.0329288111950521 -0.526046022336044
 0.165623513331916 -0.011924088127535 -0.418992669582524
 0.0731389703318914 0.00121390365146453 -0.35297092687595
 -0.426629867016235 0.015604445381724 -0.186966625884496
 -0.0955244484507599 -0.0329288111950521 0.103494133273956
 -0.0286968010931927 0.00908063493998214 0.132363457809503
 0.162259617129124 -0.0329288111950521 0.17965571521774
 -0.0428230721816232 0.0300853580074993 -0.503325131343457
 0.14496455187171 -0.0142766171110969 0.10444743408244
 -0.33701523100375 0.0250153372858343 -0.00807649476180333
 0.0430528435494846 0.0147099758180452 0.0891044456008173
 0.216602609905838 -0.0329288111950521 0.169865082124341
 -0.313604600050285 0.0300853580074993 0.0834268930234763
 0.087193920034879 -0.0176882749978352 -0.55360834269188
 0.33636579411749 0.0262635427150071 0.101731109611005
 0.257275520453341 0.0300853580074993 -0.430629297336659
 -0.195435558716292 -0.011924088127535 0.142119005377549
 -0.2467005435389 0.00908063493998214 -0.0345246904732306
 0.193950276424461 -0.0329288111950521 -0.465764985670448
 -0.336071635871447 0.00908063493998214 -0.25344501100414
 -0.415064711179171 -0.00511264097979031 -0.0266907262931456
 0.0387659053262477 0.0300853580074993 -0.530345438309108
 -0.416177513666544 0.00908063493998214 -0.188039846888522
 0.192408688496936 0.00908063493998214 -0.328374924513194
 -0.1575669464856 -0.011924088127535 -0.383754466617544
 -0.109028589454397 0.0300853580074993 0.681701171479885
 0.124414863726726 -0.0329288111950521 0.262373285122936
 0.214305305487419 -0.0299005805363356 -0.19620761741158
 -0.020273166677217 -0.0321814154193598 -0.564534052304037
 -0.348220581080892 -0.0329288111950521 0.0879169073575258
 -0.409137278033615 -0.011924088127535 -0.247576496471772
 0.307867558497994 0.027642980201021 0.138565203359692
 -0.0438194578157124 0.00908063493998214 -0.401497201461905
 -0.14398300239114 -0.011924088127535 -0.429303739398658
 0.402452437209599 -0.00946740458173993 -0.218215739928794
 -0.268925050441918 0.0300853580074993 -0.168203686089415
 0.106422366116074 -0.0102805577784607 0.0640284058731094
 0.0425390472963483 -0.011924088127535 0.134268250395921
 -0.132724082453211 0.0300853580074993 0.704297862940307
 0.177962890082196 0.00908063493998214 -0.488928097695798
 0.107179711513481 0.0300853580074993 -0.357323916130607
 -0.0905013249761061 -0.0329288111950521 -0.364746879019007
 -0.293851914630616 0.0300853580074993 -0.304202802863481
 0.245108019460152 0.0300853580074993 -0.429869083695515
 -0.398557647015076 -0.012599255411943 0.042361647411741
 -0.124780249601238 -0.0115051177665971 0.926944813680727
 -0.231678051110117 -0.0329288111950521 0.214182084983365
 0.11359452008361 -0.011924088127535 0.155241778902112
 -0.00652797602567415 -0.011924088127535 0.678421459885156
 -0.282491097067881 -0.0329288111950521 -0.344201650483823
 -0.367361286958327 -0.0329288111950521 -0.0304045700204901
 -0.413330062290125 -0.011924088127535 -0.0610325684838332
 -0.123674890061667 -0.011924088127535 0.328545915219769
 -0.137419493011064 0.0268336329326811 0.684367501381059
 -0.144521834399996 -0.011924088127535 -0.48155828438239
 -0.338800630042791 0.0300853580074993 0.123277312258
 -0.416072653596942 -0.0158537341893037 -0.271023239709177
 0.206042608959725 0.0197209909278198 -0.221241637979414
 0.122191855651879 -0.0316857931859888 -0.543878035166771
 -0.0814496127014497 0.0300853580074993 0.678989721784093
 0.0731981544841837 -0.0141235597909366 0.0798610810842812
 0.310867923027528 0.0300853580074993 -0.0932453543987033
 -0.013833146233184 0.0300853580074993 0.91725586378948
 -0.372989165706274 -0.011924088127535 -0.11028213552528
 0.205048682550432 0.00953830335701578 -0.441362442729662
 -0.345159281455436 0.00908063493998214 -0.0600013928217804
 -0.308229302312764 -0.0329288111950521 -0.0473511321529623
 -0.336631850898113 -0.011924088127535 0.00403445088822894
 -0.246260566920479 -0.0329288111950521 -0.270041209044832
 -0.240388001833099 -0.0329288111950521 -0.482537260061179
 0.0935790793397473 -0.0329288111950521 0.256588791348788
 -0.1684770395325 0.00908063493998214 0.102353615136066
 -0.25743466602074 -0.011924088127535 -0.205461734050411
 0.39001755133598 -0.0317103307222927 -0.290243698132549
 0.107526570461855 0.00908063493998214 -0.506922444212213
 0.321517733417028 -0.0154201038423484 -0.40795912378425
 0.351736831779538 0.0300853580074993 -0.120452725322095
 -0.076778185456018 -0.0218992633725524 -0.358256729261647
 0.328363835704069 0.0300853580074993 -0.072449624624368
 -0.012252153383839 0.00733782732373038 -0.368231415974299
 -0.115649785422352 0.0300853580074993 0.324847273268332
 0.053298521781695 -0.0329288111950521 0.231359847453519
 0.152998917695222 -0.0329288111950521 0.194216161452293
 0.221310485568177 -0.00999725726685607 -0.155315910888108
 -0.358748871735759 -0.011924088127535 -0.362012296188195
 0.13567478249865 -0.011924088127535 0.233420740796447
 0.0956318737359998 0.0207931946385553 0.944211772852799
 -0.25328916049249 -0.0329288111950521 0.128153989669475
 -0.263621862453443 -0.011924088127535 -0.388734606960512
 0.0956344719931613 -0.011924088127535 0.388939191110343
 -0.145092507309562 0.00908063493998214 0.139886186125801
 -0.125697641143998 -0.0329288111950521 -0.40921280906003
 0.0798093603588776 -0.011924088127535 0.917671453955884
 0.00138348461066882 -0.011924088127535 0.926557875138451
 0.232171932585773 -0.011924088127535 -0.189978941208301
 -0.0655790832115789 0.0300853580074993 0.888511623693996
 0.22200779982073 -0.0275462886668758 -0.129191375594309
 -0.12053309004256 -0.011924088127535 0.145943705381898
 -0.137419493011064 -0.00850695174520214 0.758484955718259
 -0.191034458001269 -0.011924088127535 0.110287686362437
 -0.00509781618754648 0.00908063493998214 0.219743614255908
 -0.259435691692671 0.00908063493998214 -0.372845719645947
 0.291463004167817 0.0300853580074993 -0.373965020331855
 0.237744102149875 0.00908063493998214 -0.323764434064387
 0.409056428238409 -0.011924088127535 -0.132573920837953
 0.0659703541498882 -0.0329288111950521 -0.402513676215851
 -0.252273274826516 0.00568776413591182 -0.479442153522786
 0.286374647105451 0.0300853580074993 -0.423120986889978
 0.300200204371605 -0.0329288111950521 -0.259727533616674
 0.40026726753172 -0.011924088127535 -0.135161191606816
 0.118222051615499 0.00178063439765485 0.752103256919303
 -0.157641533524751 -0.00399095469489709 -0.314813263309181
 -0.256607182002722 -0.00553140391719881 -0.486254068168363
 -0.171968752970567 0.00908063493998214 0.115382450313229
 -0.215403412158573 0.0300853580074993 -0.321574499565924
 -0.264568221655028 0.00786185441344706 -0.0360917756968292
 0.354711529056834 0.0300853580074993 -0.126580266048077
 -0.0270613892310452 -0.0121404636032491 -0.367593345509576
 0.218455162854161 -0.011924088127535 -0.0806620410444903
 0.145102690933056 -0.011924088127535 0.140315087871667
 -0.0843461917381289 0.00908063493998214 -0.461969627455066
 0.254915095154962 -0.0142766171110969 0.0397430143442982
 0.0567748826080534 -0.011924088127535 0.397735376463414
 -0.0617659032348244 0.0300853580074993 0.551446984491881
 0.395327875566527 0.0300853580074993 -0.112583893038476
 -0.0667446394921552 -0.011924088127535 0.910687168646851
 0.272505204681585 0.00908063493998214 -0.298748400258329
 -0.254141983530061 -0.011924088127535 -0.10883878124355
 0.190363704480233 -0.011924088127535 -0.00140301272474932
 -0.36647866613438 0.0300853580074993 -0.318718154781003
 0.0511069825129749 0.0300853580074993 0.470802215507175
 -0.276063702629896 0.00908063493998214 -0.386039707638972
 -0.266782807960198 0.0300853580074993 0.164683232827735
 0.255045774154914 -0.011924088127535 -0.085499905869914
 -0.335277570603395 -0.011924088127535 0.0885146003706701
 -0.0658377461073856 0.00908063493998214 -0.515228237785626
 0.221747771322532 0.0300853580074993 -0.182305054476611
 0.0641684483363178 0.00908063493998214 0.249923432286176
 -0.0972196595908454 -0.011924088127535 0.408245215681998
 -0.364751969155917 -0.011924088127535 0.00636180225264172
 -0.344015818790224 -0.011924088127535 -0.326181002207563
 0.138580687660787 0.00908063493998214 0.211903450288271
 0.224761409540557 0.00908063493998214 -0.0913051562525873
 -0.273248996979962 0.00908063493998214 -0.42653554509163
 0.184629196815568 -0.011924088127535 0.234772485531609
 -0.240464402971052 0.0300853580074993 0.0945153154263639
 -0.0722258856034615 0.0300853580074993 0.529459686690114
 0.217994886792351 -0.011924088127535 -0.482222625118257
 0.012714760836128 -0.011924088127535 -0.428070124286913
 -0.0337745492514918 0.0300853580074993 0.14578657277525
 -0.197925385470342 0.00908063493998214 0.17183009383754
 -0.0101463740651317 -0.011924088127535 0.570107820483319
 0.107194365696846 0.0300853580074993 0.478719763215469
 -0.137419493011064 0.0253357729012326 0.517151336756701
 -0.206225992425845 -0.011924088127535 0.0755620828288257
 0.242242354161065 0.0300853580074993 -0.121658228580056
 0.115689991386104 0.0300853580074993 0.482211689917665
 -0.00861020316808952 0.00908063493998214 0.150313502278188
 0.262943606387137 0.0179845704139791 -0.0259061878035527
 -0.0625348223056448 -0.0118332617458737 0.987885400395919
 -0.0236647621366512 0.00908063493998214 -0.522003854166123
 -0.0659554762704753 0.0300853580074993 0.587240327864777
 0.102343737882064 -0.011924088127535 0.59541857881747
 -0.14606860979885 -0.011924088127535 0.255853151447648
 -0.351209166113864 -0.0329288111950521 -0.0795172374035749
 -0.137419493011064 0.00772021976860466 0.749103854886418
 0.320693037278777 -0.011924088127535 -0.357600192544697
 -0.339245843643711 0.0300853580074993 -0.126627703164549
 0.200935562723762 0.00908063493998214 -0.463144807036232
 0.210521778108652 0.0300853580074993 -0.312574752893327
 -0.137419493011064 0.0171454538245761 0.794146644234929
 -0.265226728943566 -0.0329288111950521 -0.214653124242655
 0.0014899429403853 -0.0029679632952156 0.831220556018043
 0.266786151930649 -0.0329288111950521 -0.43778098899575
 -0.0271513745819949 -0.0329288111950521 0.238687743829155
 0.222820815443385 -0.011924088127535 0.0535023456363257
 0.368368627697831 -0.011924088127535 -0.179940378602746
 -0.115700259220529 0.0300853580074993 0.210843236828354
 0.295700357965111 -0.011924088127535 -0.300420554243887
 0.128073708846045 0.00908063493998214 -0.370540147979917
 -0.198467208311202 0.00908063493998214 0.0514665405834961
 -0.200690796399488 -0.011924088127535 0.162803569982393
 -0.247490690768317 -0.0329288111950521 0.166029875051391
 0.391733426741167 -0.0329288111950521 -0.028354008128026
 -0.364904445373953 0.00908063493998214 -0.176931111014941
 -0.335378269737427 -0.0127458630679964 -0.414365617050582
 0.169404853309029 -0.0142766171110969 0.136077527122598
 -0.203364057154712 -0.0117972016838392 0.236178981806502
 0.118222051615499 0.0250622328344198 0.284927893226695
 0.0782676482713789 -0.011924088127535 0.0793193021428597
 -0.0565076817741761 0.0300853580074993 0.971991190839319
 0.232164299815134 -0.0139913945447884 0.0945372592375354
 0.331664063386419 0.00908063493998214 -0.37722272719291
 -0.0734696038228578 -0.0329288111950521 -0.437455038220124
 0.335213258514918 0.00908063493998214 -0.0679074294487018
 0.0700846544169308 0.0300853580074993 0.0936992955261388
 0.330212232184869 -0.011924088127535 -0.233877148965047
 0.0678132477868984 0.0300853580074993 0.54474069175957
 -0.378503475249218 -0.011924088127535 -0.23433704376931
 0.228651385435018 0.00908063493998214 -0.108857814676978
 -0.245072130505443 0.00908063493998214 -0.133957575245209
 -0.110469826255398 -0.0329288111950521 -0.385175400828346
 -0.0308110733789168 -0.0329288111950521 0.121168898048674
 -0.11629675918132 0.00908063493998214 0.104604549495515
 0.0495260859179986 -0.011924088127535 0.164603367142283
 0.15145592431268 0.00908063493998214 0.181377133447076
 -0.134312773814423 -0.0329288111950521 0.202661379504581
 0.1823257410064 -0.0195136449454879 -0.51924732055568
 -0.400977084935091 0.0300853580074993 -0.0119510409184459
 0.386677415131384 0.00908063493998214 -0.241217308512254
 -0.14468827884582 0.0300853580074993 -0.361714028827366
 -0.426679425904269 0.0282849617195423 -0.0865442773033213
 -0.37917057297039 -0.0329288111950521 -0.0245026883840462
 -0.0412783951536139 0.0300853580074993 0.811441765586402
 0.0557979666996858 -0.011924088127535 0.301369705178311
 -0.139889683494437 -0.011924088127535 -0.480511296218419
 -0.0371746022039994 -0.011924088127535 0.243971629224148
 -0.232692206494035 -0.0198569885908243 -0.0739595897662762
 0.0934298525553808 -0.011924088127535 -0.452663360661069
 -0.1057288806026 -0.011924088127535 0.901664131150461
 0.291922822848959 -0.0329288111950521 0.0397654742602725
 -0.00837269606250073 0.00807642804442162 0.0951597740908691
 0.312585048269306 0.00908063493998214 0.0733274644902027
 0.236967124651313 -0.0329288111950521 0.126832185289417
 -0.331855475884904 -0.011924088127535 -0.286252403886415
 -0.247671736383657 -0.011924088127535 -0.240487748630569
 -0.0111333613220719 0.0300853580074993 0.972577290358343
 -0.0532952364675656 -0.011924088127535 0.455092089326343
 0.185966139725099 0.0300853580074993 0.203783934569295
 0.30551575873197 0.0300853580074993 0.100463214449583
