 0.605267036252784 -0.63758721465506 0.18997101583859
 -0.387152509058471 -0.702553267945181 -0.111120175963013
 0.484304082128869 -0.802321379499468 0.261954103998536
 -0.0519201339067661 -0.297749625603067 0.424483043945372
 -0.34490579671112 -0.51309364441328 -0.099461960036057
 0.2963698513189 0.534657517784291 0.0593215805907469
 0.450694291745738 0.534703430348012 -0.195359073923524
 0.422379748573609 0.188124232807927 0.250170456767449
 0.186284703353801 0.382728540129745 -0.308229309849064
 -0.128042533911863 0.382682627566024 -0.234516728272564
 -0.294468828044857 -0.420038450632433 0.222134133301154
 0.534298723434566 -0.741940266899364 0.0941567208651359
 0.506772029488619 -0.0763075327598185 -0.182655187512345
 0.584511902558075 -0.518676267917119 0.245198019451236
 0.0660576949275129 0.0796266887476019 0.409562895269759
 -0.290712061208615 -0.199389736257573 -0.188862844702299
 0.520943784310601 0.0978896366291972 0.237227597297985
 -0.394627857665376 -0.481295196498067 -0.143373800948065
 0.267055929078414 0.340803462323539 -0.341162364150991
 0.130842070715136 -0.90006418592293 0.288759332725912
 -0.0340396465137374 -0.90011009848665 -0.0568048571043429
 -0.190223212212289 0.280721844774071 -0.232676686670677
 0.414061850033937 0.418462064238641 0.200627263959866
 0.107878033257965 -0.826512258842416 -0.0560285282121788
 -0.130329690014183 0.17825583958534 0.389633442645166
 -0.38410051442315 -0.610338951457398 0.176858999628414
 -0.167872497208023 -0.90011009848665 -0.0763687196279541
 0.264527627187107 -0.82487319471763 -0.120878323237135
 -0.35453785808115 -0.597567364345898 -0.24546634507484
 0.348627284188781 0.382682627566024 0.0569007793271527
 0.472169099304344 0.407502418272247 0.0689988647398878
 -0.191422408259753 0.133491277140397 -0.265948781669632
 -0.0324577578051441 0.534703430348012 0.105088643682322
 0.544038436080464 0.0256537564835484 0.216048235602347
 -0.0741432348267204 -0.563057839308335 0.495693419528989
 0.180713399168037 -0.141501914115094 0.435013879907042
 0.0436528368424972 -0.0743530809888203 -0.488254169906282
 -0.252084396590051 0.445307364481019 0.12815639307877
 0.0538273815062288 0.534703430348012 0.131442846827041
 0.579341842510877 -0.523071154047532 -0.254660930887988
 0.285830039079707 0.394146829518017 0.317063789507974
 0.248322486942764 -0.522409939809696 0.450553587334643
 -0.185265517780359 0.173828599636531 0.263835235388111
 -0.147546895302606 0.382682627566024 0.0258412014796427
 -0.122560981917594 0.117457103336672 0.403958765252406
 0.318178595334745 0.415366677381547 0.370286191871352
 0.169974562223454 -0.352131860919227 0.457597763704424
 0.336800761711992 -0.0877996827114523 -0.442378882025671
 0.0550192778501609 -0.90011009848665 -0.0774898870930154
 -0.245869739313789 -0.8538335102301 -0.0720186513631596
 -0.289994637461803 -0.741651936826177 -0.290715414370019
 0.542570063990939 -0.273013730096717 0.285796442894821
 0.368889908769556 -0.241300980676511 -0.4437419287504
 0.20723126937263 -0.824460982974246 0.180562656774491
 0.25694055655397 -0.590290724002566 0.44721282538466
 0.20491225749218 -0.770017324651669 -0.387120673965902
 -0.202991303718138 -0.802118792307621 0.0987955462061183
 0.464778583557624 0.192309441454852 -0.184354880917842
 -0.381869597664705 -0.0895423942738424 -0.0273153777210547
 -0.370671337444191 -0.0839108846666117 0.104256636420323
 -0.274000053948336 -0.59918993403952 -0.359204614203559
 0.439388465018667 -0.110811530001076 -0.291488888868092
 -0.202819942703725 0.399752291305032 -0.170982883099281
 0.192034605024823 0.534703430348012 -0.232559035776939
 -0.0737864867886525 0.382682627566024 -0.0479827762834544
 -0.0752554290914694 0.318034275658574 0.326034643514067
 0.381565240432509 -0.850313222847325 -0.266703202798901
 -0.179824363095159 -0.0186826393977983 0.307762751563481
 0.367424292213538 -0.13067424675492 0.358536008838009
 0.265910012530718 -0.0809967733838079 0.405810397587412
 -0.175582512853665 -0.625137699804476 0.440717812467671
 -0.00636399925983735 -0.445789876885801 0.514036061404597
 0.526993723004766 -0.409719408493517 -0.2140001257932
 0.380009291720193 -0.214367633893678 -0.360794706684421
 0.536622032066763 0.170587291624203 -0.183244597103303
 -0.19607203302932 0.470472839124155 -0.271584389786234
 0.265658516430819 -0.0338725278193686 0.399632856469956
 0.419080259320187 0.410912622526562 -0.200097045010948
 -0.017441322392499 0.151505692282581 -0.443715051897966
 -0.252257537088051 0.534657517784291 -0.0720936583617394
 0.631025723426618 -0.636417222268508 -0.101589061186202
 0.31349367009563 -0.319751952980635 0.413090987073866
 0.42924916287485 -0.872983500543457 -0.122846719328593
 0.174649270306838 0.0566722998817447 -0.472832274306613
 0.228911045401884 0.382728540129745 -0.313371638262581
 0.46995209077892 0.512921082447647 -0.209675230623131
 0.0819625884303711 0.382728540129745 -0.109275086353818
 -0.192038577478539 -0.0999299382680216 -0.391162468828862
 -0.108856494504555 0.534657517784291 -0.00240491719856692
 -0.156354007601408 -0.36315950115209 -0.446885869628727
 -0.068591598164544 0.534657517784291 -0.0584073540453904
 0.336931758597475 -0.59033686928336 -0.481087376676926
 -0.427088490339471 0.28481000751254 -0.0131796209380813
 0.337062918380329 0.515471155263858 -0.347913673529943
 0.0578091334972359 -0.79592408591628 -0.34312430694593
 0.387123906780793 -0.658915027250528 -0.372881682137415
 0.194353340582557 -0.90006418592293 -0.188354187392512
 -0.033916398696903 -0.179957597290896 -0.419272153061323
 0.410821525078623 -0.263818749957309 0.419617468220805
 -0.56292828491423 0.200964112236068 0.0888793318225193
 0.549205480743713 -0.512043296716643 0.177513947894617
 -0.583518484129429 0.220170779191862 0.128412232603464
 0.52537150665764 0.165247272907501 -0.209498321304804
 0.556608686497947 -0.322971031615197 0.120157549123416
 0.607246225686469 -0.0907458872088911 -0.0552614663486528
 0.567789458067782 -0.554605161412512 0.275971129362412
 0.214013512782847 -0.426709523566484 -0.455557978827034
 -0.157689080894892 -0.360250876976083 -0.445841511573924
 0.301514267186316 -0.684648744494277 -0.417412949946795
 0.567843842637305 0.1087082945928 -0.120264211661896
 -0.112502003881933 0.351087292449499 0.295236674134788
 0.387297210326374 -0.53646967531962 0.455166580882487
 -0.0858882287795055 -0.824358270677283 -0.0460878894502354
 0.260288377662117 0.534703430348012 -0.0305171804200687
 -0.154743317639601 -0.90006418592293 -0.0224249526882188
 -0.055900606565534 -0.271773321369908 -0.420217102232016
 0.26324826318404 -0.90006418592293 0.206567702331117
 -0.335486326330011 -0.079670811445852 -0.210588995843197
 0.347005927947533 0.129094851899883 0.403995280058077
 -0.00533611581590235 -0.689748940616295 0.440350556424804
 -0.00345161719144963 -0.135009279393363 -0.423212435678277
 0.399702343304233 0.0664000638734055 -0.300068320719297
 -0.184547297003367 0.30233224313838 0.324115001177249
 0.190951686742209 0.534657517784291 -0.0394578115225325
 -0.282372754360439 -0.273774558520535 -0.219844732896417
 0.445294443904514 0.534703430348012 0.160152728125284
 0.366077877516015 -0.880040886400256 -0.221330079278113
 0.0815111407663442 0.246876621396557 -0.38651794641629
 0.308660690276029 0.534657517784291 -0.326803356039403
 0.590234044795042 -0.386082999573546 -0.220168501885772
 -0.146880253922955 -0.0913937979605636 -0.347082501732243
 0.531790659226606 0.0392578652168952 0.234465546004072
 -0.00420687621789238 -0.826558171406137 -0.0418232217225841
 -0.595486956281416 0.0929400377091065 -0.0695366219891542
 0.421690399149509 -0.370801301687579 -0.344812648624948
 0.521256345822843 -0.580276741119286 0.234327279115542
 -0.403355098889248 -0.493435326356321 -0.112155531322547
 0.284987670382531 -0.743759308274465 0.393406463556074
 -0.125466506580267 0.28330309668046 0.298499163391337
 0.323718886588828 0.427377174568042 -0.293422293754313
 0.176998804069292 -0.431255918780512 0.462188232457142
 0.551789982730098 -0.589262020392315 0.170173770874472
 0.0606112883499083 -0.714467213264433 -0.507635475001088
 -0.0164999772974001 0.382682627566024 -0.0848382072189723
 0.0749916017949574 -0.0812757686269438 -0.49257869046787
 -0.466535681365557 0.280990412663108 -0.0654525399648011
 0.606369302923898 -0.0680181460794218 0.0238716852241212
 0.481044477354908 -0.459198915918278 -0.291051619993375
 0.45337747241421 -0.621691175582402 -0.404562537537897
 -0.567330996788404 0.0987006998263925 -0.088870567839892
 -0.431628018250056 0.213194956652944 -0.0667927324043649
 -0.27231209646487 0.481779971004368 0.144205841140318
 -0.298268987071342 -0.0278665146952971 -0.122039905327021
 0.0330464751033662 -0.106609729529025 -0.490313333554387
 -0.0718665265131702 0.534657517784291 0.345966555213126
 -0.410569360767085 -0.465750449585014 -0.0631950510407714
 0.618609465397145 -0.727818470751815 -0.0167147415089736
 -0.132284378399595 0.534703430348012 -0.197692188363821
 0.513423041333613 -0.61006400284008 0.246950192100485
 0.504552821593521 0.0224850259249541 -0.154861330880799
 -0.220677298204844 -0.200754776451084 0.381060605267189
 0.353667670867412 -0.811888442890389 -0.177308607657874
 -0.322542468841922 -0.222324979965178 -0.104559226486726
 0.436084352419555 0.428240217284407 0.16321051051049
 0.540859087059969 0.0944154984579233 0.201568339012274
 -0.0883319333425276 -0.753612486902849 0.364486521553616
 0.607953750046851 -0.624877640225328 -0.186470576923135
 0.520876962136958 0.454692824441826 0.0688163998932285
 -0.320416678815201 -0.729930670073217 -0.033729611168232
 -0.240223554854308 0.453527516474491 -0.20975433806358
 0.317628332323905 0.211187266600474 0.406700147514914
 0.35596756920304 -0.313002376073293 -0.388931233744349
 0.376456508533556 0.382727226399487 -0.230884851095502
 0.307312800364647 0.248394730156193 0.336187835560898
 -0.295085859898017 -0.833261697938555 0.0326334738818947
 0.520507637727196 0.520950564945055 0.0728600288158317
 -0.286257947079231 0.167096321172036 0.106328114482865
 0.374827503307347 0.299636699345682 0.276683477456242
 -0.111668912962119 0.534657517784291 -0.169307353097439
 -0.406581045864376 -0.667605242622532 0.0238168216503526
 0.280251317755198 -0.33832368196102 0.428661730212085
 0.494306947704201 0.285599564973411 0.0445471050972346
 -0.287666514160278 -0.311558958225807 -0.217431451952659
 -0.104026969768507 -0.768417239897423 0.334088489980434
 0.576182019882486 -0.586610112610423 -0.0838225085773798
 -0.0938942425635725 0.141588147244847 -0.415529822271028
 -0.144602937146525 0.106039175854797 -0.316514664495805
 -0.310131369475659 0.236066673729563 0.00666393287159882
 0.0512162178853335 -0.825472656415103 -0.167242142535541
 0.278737177162689 -0.453398863960861 0.501785520388112
 -0.264024702516176 -0.328350187905631 -0.259160651862806
 -0.514337748152396 0.110577099967929 0.111440575061646
 0.332599192265299 -0.687271604331412 -0.469606116129919
 -0.290432399106129 0.171346683850434 -0.0991182755719808
 0.205914973558085 -0.476557570475241 0.520798538047801
 -0.320080032022422 -0.0592678436706155 -0.23365113072059
 -0.12266445569241 -0.691211424171655 0.389964020816047
 -0.0305232255628755 0.103890809542533 0.382055147272195
 0.0837333695965147 -0.440261198817078 0.465656407311385
 0.528687091408387 0.05910404490207 0.0219487805123898
 -0.15883513070366 -0.815364216517492 0.0558270696846026
 0.0703429300022766 -0.609912257321298 0.466940006191409
 0.520810011419417 -0.0659015393429275 0.277767221484295
 -0.0471650020538205 -0.78496216740265 0.33895452337748
 -0.257198211748721 -0.532946981122436 -0.289065760705668
 -0.0705708363564563 -0.90006418592293 -0.040022870752677
 0.549019042682657 0.21335512967768 -0.131151307081607
 0.209827234701978 -0.362399099708243 -0.451651224838896
 -0.338532134933299 -0.326711968515732 0.0713024223369583
 0.236822516954992 -0.90011009848665 0.0685832063572825
 0.54460135151419 -0.0659792815379254 -0.0285433014173736
 0.601149105100945 -0.0181638404779636 -0.00544773276507276
 -0.225493886621101 -0.792228695085841 0.314545210917336
 -0.0429832352115329 -0.56584121473981 0.44326119599994
 0.339044653064477 0.0389195835999423 -0.352555809196185
 0.398738484968334 -0.859288944413812 -0.208827947645992
 -0.281477916322194 -0.399131184583438 -0.34423522686755
 -0.218682026160116 0.119959006741874 0.329820548818749
 0.368447156775074 -0.537641371891077 0.465603377565831
 0.219984124262172 0.382728540129745 -0.0845211161447925
 0.641386075927769 -0.633392755506736 -0.0112513147886099
 0.250484733791025 -0.688344635263377 0.435971098664204
 -0.319763081543863 0.0164611997074263 -0.219459641447375
 0.122435380886319 -0.722545245692403 -0.44028067449654
 -0.362282784742586 0.0863291804514847 0.140616127141336
 0.144792768091761 -0.362787571483229 0.521201334196297
 0.514788671858955 -0.172469815700018 -0.307383769160592
 0.0351250049093778 -0.584654551718264 0.462534273184016
 0.449597359004494 0.363820508890122 0.158026002405022
 0.0135379185836015 -0.0414588386293452 0.416428734288587
 -0.161535751692966 0.534703430348012 0.0528347786921075
 0.613937197954638 -0.361401155821815 -0.151792005591441
 0.167953495596845 0.466991873853074 -0.409382202080833
 -0.416698079290182 -0.543028984385955 0.00149345255014596
 -0.373535855762447 -0.645732553074653 -0.193507311711065
 -0.108788124770947 0.382682627566024 0.0242101888279345
 -0.171459174825192 0.225409821319284 -0.26709768246277
 0.22847662307231 0.410213930339246 0.408385903145197
 -0.0281801660047266 -0.131758430002876 -0.479175077371157
 0.341041530545508 0.382728540129745 -0.165182153194699
 -0.100734084860855 -0.0540507598863662 -0.441777514589363
 -0.25285271504764 -0.783360103797684 -0.0935823376985192
 0.455297964354046 -0.0962896976544256 0.270880624863244
 -0.25214512489499 -0.768926727482764 0.155902970472333
 -0.263097101925134 0.445261451917298 -0.0629481355941166
 -0.34554449752284 -0.642909803319747 0.0671554760538508
 -0.00404788001325931 0.0794249256932507 0.394540289792787
 -0.158700916844139 0.0782305794300755 -0.309371464330635
 0.127791115038405 0.382728540129745 -0.287086669139948
 -0.407170405596906 -0.357228494564236 -0.016181237985309
 0.282110163252613 0.468110944844034 0.3771076074009
 0.187043057697914 0.534657517784291 -0.201422174048897
 -0.429538551469022 0.0160855215108432 0.0360792654377353
 -0.330625460525175 -0.29607037794213 0.262745894872729
 -0.410386870283818 -0.645904650212026 0.0155700417299883
 0.515937204150895 -0.0647550997062863 0.156774249007338
 -0.126070974367118 -0.668328257345404 -0.462783459751661
 -0.327311182289312 -0.380612578113992 -0.137157335489174
 0.600962921563723 -0.233405272518151 -0.156184367080161
 0.469482134060762 -0.339900072469321 0.292420331826431
 0.0615991390122494 -0.721959803585703 -0.437653187557549
 -0.267402155637911 -0.0765760125067258 -0.20653307923882
 0.273150940591632 0.46098980908667 -0.380818149781545
 0.401397384868253 -0.507864315853411 -0.371949732977675
 0.411446310293282 -0.800082823897958 -0.160290175808581
 -0.585389688228231 0.177331435393817 0.126748199436517
 0.0404301337334674 0.52635840640548 0.405234138133507
 0.381159437685547 -0.883174995446335 0.201760274150177
 0.221555910294025 -0.393687070968675 -0.451433658259172
 -0.00436051428528469 -0.90011009848665 -0.281258976300067
 0.108078581492572 0.534657517784291 -0.393619299690078
 0.231523083013828 -0.82392657202393 -0.179511313576438
 0.51245006336659 -0.155615856375826 0.19267741609018
 0.0807952513735672 -0.896220134053906 -0.325503585971309
 0.497277285829157 0.440469920065447 0.0205695531464209
 0.340383109041579 0.534657517784291 0.163190036206858
 -0.340584141632615 -0.287949122495664 0.0130939856727506
 -0.335289318145621 -0.167786302205633 -0.228559723963109
 0.463191333312811 -0.433871352401123 -0.309478458619779
 0.548716012697566 0.253966239500912 0.110714104308927
 0.424389045593157 -0.195244698549317 -0.320979037265803
 0.0565563306677362 0.382728540129745 -0.0745029208967443
 0.431288939790186 0.382682627566024 -0.0492487305822287
 -0.412328617913821 -0.638722144613804 -0.00168538490574271
 -0.225757279282539 0.151786231550166 0.315628245620272
 0.569062642767513 -0.440961259956168 -0.107729564667086
 -0.408555939844515 -0.599013092847926 0.0799598355355066
 0.109940528970388 -0.214670939951828 0.509401484148441
 0.546059307584171 -0.738817244990049 0.00873632039231543
 0.333656002644308 -0.641212529613278 -0.478052130880383
 0.0762122446194805 -0.579509164558603 0.467972113048393
 -0.522716719073345 0.231767813930835 -0.120949432437885
 -0.255580452963077 -0.77632571746971 0.121549545709127
 0.141783480671449 -0.771136473820721 -0.3946960530011
 -0.0333967502935592 0.534657517784291 0.0388403781408014
 0.343661690174896 0.382682627566025 0.186259143564927
 0.0396151270531454 -0.825653051152416 0.159097886400477
 -0.297577550454926 -0.354626519005013 0.206802842792359
 -0.181962639183396 -0.839891794063673 0.265377442886951
 -0.321341638625948 -0.0331135045022557 0.0307504423017847
 0.445069771921876 0.273605999855583 0.195061248865238
 0.129580015858377 0.534657517784291 0.134693113310875
 0.0104724643285234 0.114803281672206 0.457210494918511
 0.165723712295112 -0.819171653245474 -0.253359819361064
 0.161691633395016 -0.817707959789781 0.262017133985207
 -0.340517901712063 -0.362163323122931 0.0757289293910538
 -0.220691723411462 -0.275772859808841 0.390992058020271
 -0.141699177607909 0.503916742958984 -0.324106229170747
 -0.649289380524689 0.0945839600258639 -0.029182415727896
 -0.174493724219011 -0.0305696482695414 -0.314433543491072
 0.377784556486763 0.15944077174081 -0.301925659204216
 -0.25267734881222 -0.582599828713317 0.382579425557205
 0.50253073045947 -0.221673680584201 0.225435318221519
 -0.329898476649988 -0.310036336882654 0.266504903804109
 -0.442793124343395 0.238978573128041 0.101465090879527
 0.00780717530628218 -0.679806117689827 -0.50885396528029
 0.460630494476027 -0.861112651075957 0.0488162932066914
 -0.00586059863646168 0.0800672260757708 0.457667695046391
 0.282204091652009 0.0989881591482701 -0.439657384932188
 -0.229291016762657 -0.729722755146935 0.269244242325254
 -0.29980789601993 -0.199090378384416 -0.166669905614046
 -0.393932329522793 -0.327626353076226 -0.108470681161363
 0.140343273780239 0.00981352013648052 0.420543805971965
 0.461513906751949 -0.05144785344884 0.252669278944264
 0.275713749560546 0.366274394025744 0.399742925938581
 -0.0292781006755961 0.300553397042761 -0.417498326033484
 -0.253719654358076 0.181259963451266 0.164553121584788
 0.469837243677057 -0.257130442527626 0.370483765443705
 0.469314559430875 -0.50008964937291 -0.393068294041152
 0.0593717424616911 0.382728540129745 -0.187875860450363
 -0.0253607948965514 -0.470551428313212 0.446602572812819
 0.0674591459447108 -0.668269855661978 0.458294263752774
 -0.280608218299188 -0.114314515791019 -0.303949366393183
 -0.0455542504496447 0.349548750960902 0.402993805385762
 -0.463522310674016 0.1759567126639 0.0877621747851626
 -0.018554932409768 -0.665385494992673 -0.504853806502477
 0.47631140069627 -0.240507047595466 -0.268542414688485
 0.441755028314536 -0.516186164109143 -0.33748812580209
 -0.107602583951732 -0.0692679106556108 0.370363309628575
 -0.332206956344817 -0.580836695691689 0.286151637644769
 0.18766690688817 0.445261451917298 -0.364177966958025
 -0.277782468185612 -0.492492326420625 -0.35544512879942
 0.396003652773006 0.150610145458157 -0.28730956457203
 0.213836170656002 -0.469533942295767 -0.457706665940912
 0.104100385195004 0.240301144931149 0.388693994551599
 -0.0798930443486944 0.264687820486963 -0.402572199158346
 -0.00243933390019854 0.382728540129745 0.158396686353388
 -0.13874394372503 0.479588887675336 0.32620205918663
 0.567410990795025 -0.318263522301427 0.0668490792371642
 -0.31736598298276 0.328965467553825 0.0728958963725216
 -0.358673470026766 -0.105878598849831 -0.157163858757472
 -0.157307712570728 0.0133669536335976 -0.322096671180145
 0.300431734692424 0.382831655846319 -0.297407341835062
 0.204767987772177 -0.60864681236748 -0.520618182573603
 0.414775021479614 -0.742620851838789 -0.397182191216531
 0.587912917849953 -0.406830946408499 0.229022865520518
 6.62550869882364e-06 -0.82596287131829 -0.122352373954081
 0.262277218209418 -0.101723887302572 -0.474084069943777
 0.221680131280527 -0.398130243151883 0.513909937941858
 -0.280566123498405 -0.061757577516 -0.17977035354659
 0.427427182647383 -0.845592497744603 -0.227184973089386
 0.45958926964221 -0.794290242001882 -0.069501034963934
 0.468090222081527 -0.635599893053613 -0.303787377582566
 -0.306759824646483 0.218755816671258 -0.183314510226351
 0.155945650678843 0.534657517784291 -0.048832973761685
 -0.611507667688058 0.225483400291445 -0.0883002109739192
 -0.372664501916407 -0.0338265302986006 -0.0863162949128856
 0.000629452970281112 -0.24949643533746 -0.500310244766168
 -0.636894102118217 0.311412530772408 -0.0724325444204297
 -0.40818111559356 -0.368229610919616 0.0130577841707168
 -0.0763784784789989 -0.368100332479702 0.420573682679725
 0.487644725736892 -0.462085407297957 0.281883969261697
 -0.61721491587271 0.0878340225191594 0.044102783176146
 -0.267941517575859 -0.01924312537358 0.3024699085483
 -0.609006535443253 0.129099022194275 0.101467863073727
 0.261884114188271 0.417027480343709 0.333677756612412
 0.58302949645323 -0.221742262107506 -0.200503148730563
 0.444589846835254 0.0425375751106973 -0.346324022768405
 0.354374192722681 0.445307364481019 0.291382824243955
 0.565653701033433 -0.16877675022666 -0.225745072731413
 -0.0578168039725309 0.382682627566024 0.109258703278163
 -0.183745318773691 -0.773750644200965 -0.255065806653013
 -0.278635439757779 0.206148025794061 -0.23661215318709
 -0.0797578581728766 -0.856415898131818 0.304103260874925
 0.304420565366529 -0.310627891396878 -0.481834156341588
 -0.0814732446710156 0.534703430348012 0.18052583258464
 0.170320455564578 -0.881422373135364 0.330067795750375
 0.556421732877032 -0.192547184178668 0.0584248897886964
 0.595355313480751 0.00360949394186001 0.0551443116169868
 0.544956319928006 0.247802610268877 0.12707824525515
 -0.344138554353314 -0.439167086901997 -0.259753062582807
 0.522401344894286 -0.223750234174392 0.188299645612877
 0.0490814538348764 -0.166586691154326 -0.499940608700528
 -0.171775944200018 0.298159970826552 0.336413756036516
 0.451323880509265 0.0643070192710969 -0.240791630192569
 -0.191358849740094 -0.0102527802148258 0.37787320019353
 0.53693312616881 -0.177467962912015 0.137060723965232
 0.4179578133544 -0.229150753667863 -0.410374285962712
 -0.411825044195674 -0.564580896565573 0.0672854944124034
 -0.202108962050332 -0.0833319721256153 -0.380193613059754
 -0.233710364862843 -0.305152054575222 -0.382818513924736
 0.0622169837985776 -0.349491258433924 0.518915793234388
 0.032783765353874 0.534657517784291 0.236045711322868
 -0.168050256740543 0.355511398967079 0.24117874855573
 0.411607038088976 0.384502629343002 -0.195499554396362
 -0.346012758144558 -0.773321826460152 0.131925276349941
 -0.326068433754344 -0.206224186686472 0.0769117080869697
 -0.29284245459504 0.373307354009121 0.139324792328509
 0.204928396487393 0.404490174882862 -0.353186069935478
 0.0836764146939337 -0.80642331240316 0.448130253311761
 0.3017356790718 -0.832450378908906 -0.367426418132325
 -0.244557897941699 -0.562987845887833 -0.303328561527665
 0.019649008838334 -0.770578535129991 -0.385142957982859
 -0.0728907719220347 -0.199686063481235 -0.405480968866056
 0.410032574769619 0.534703430348012 0.211309179748486
 -0.135170363834972 -0.466057661157825 0.396354803094535
 0.31358540736962 0.0337382240426649 0.436398901386558
 0.580531236200118 -0.117795912030761 -0.176951455182179
 -0.287310908703608 -0.402283410434341 -0.232445593638183
 0.550262127273717 -0.411191979590854 -0.162195243118219
 0.495341814098807 -0.845459276412827 0.0690408815430252
 0.629590496566858 -0.274375707050062 0.00770704115000717
 -0.277941060760708 -0.277972156072422 -0.228554538138183
 0.503236070670651 0.274759799795144 -0.216282883469296
 0.0470304076815108 -0.0258481831530722 -0.482729712110195
 -0.113353686058883 -0.215866336371556 0.38606971296912
 0.208938876957219 0.0481282298232086 0.468222329777309
 -0.313358429522895 -0.376443488389115 0.3010703403123
 -0.282285345080298 0.346224367699222 0.177962123856376
 0.0071381436498586 -0.856104882585186 0.34515557826663
 0.456685235431021 -0.269712469218177 -0.297148099986408
 -0.238183808911588 0.368384746923198 0.110325223455251
 0.0240779453188679 0.382728540129745 0.181387382588778
 0.229191413797544 -0.224398271792027 -0.497548607160334
 0.22130168414036 -0.428353528866595 -0.515887144066493
 -0.31839520913055 0.336930222095459 -0.0571874084792952
 -0.0466452756014977 -0.90011009848665 0.221133143513021
 0.259043815064319 -0.108277700260427 0.412267575370892
 0.252336011749469 -0.641272003339467 0.507300865120245
 -0.388877607043766 -0.183698381672329 -0.0575825447297862
 -0.242914429713874 0.0230375428765372 -0.225403195857116
 0.408841390168524 0.386516546099106 -0.20276979356396
 -0.37877708483364 -0.170917518857054 -0.108710691098326
 0.198791147049608 0.321941217378692 0.367495890960336
 0.236739682972836 0.382682627566024 -0.051795992444378
 0.568291465201934 -0.430554232188214 0.108194215048186
 0.192771569597663 0.534703430348012 -0.339774262717691
 -0.261396621910549 0.350225455254631 -0.216673067595683
 -0.314188718250352 -0.384199955371553 -0.300772555880095
 0.437427951006839 0.0715488858051267 0.258399309136048
 -0.207416967232649 -0.444909672128225 -0.418227355830523
 -0.397387311136604 -0.240763959938937 -0.0103627232912189
 0.403483861508813 -0.594479333672329 0.370122349500293
 0.440678065621748 -0.129510061759227 -0.378627194132257
 -0.651692737101959 0.189054878300378 -0.123293931395555
 -0.198454856265627 -0.445124395474318 -0.346444467653472
 0.239018854518932 0.534703430348012 -0.0498025423043582
 -0.33735542905295 0.118661636509929 -0.164983349861745
 -0.336478214506038 -0.443546710728554 -0.120699105133143
 -0.348235362884507 -0.538208729163103 -0.0852440242066247
 0.574833281844769 -0.376773203545961 0.0461488806128806
 0.404790812049331 0.388154861128262 0.211148615640653
 -0.374660131458798 -0.212334200786438 -0.139726239028836
 -0.398119901276793 -0.36235673716907 -0.0999372569663499
 0.198561850093295 -0.107117084989877 0.489919104839124
 0.322968260717128 -0.466546732182924 -0.485366983252268
 -0.526802290296982 0.201356377036179 -0.128141122984771
 -0.342030541269117 -0.400621090934917 0.0827646452063018
 0.110328714479178 0.0312526315575374 0.480197258634117
 -0.263993114116335 -0.781782053952643 0.0561393836427998
 0.479947304730926 0.395462241576274 -0.00829243243977895
 0.493910021144948 0.320412005063416 0.219010045303764
 -0.346786181658731 -0.365850898085704 -0.0175841896460075
 0.0521258698147058 -0.785112789189746 0.466131590248372
 0.122204275838832 0.534703430348012 0.207620144171944
 0.639211304918283 -0.570007308826386 0.075866746642894
 0.33464949084262 -0.785050097678305 -0.303366078584224
 -0.314344560004924 -0.123148163896629 -0.25669537016681
 -0.0104980053293375 0.108845838881826 0.388368222930776
 0.0469201009998349 0.438958806506318 0.374181072091174
 -0.037718370949562 -0.69758820861862 0.427697297510984
 -0.301269415504917 -0.797868894174183 -0.191999517007044
 -0.380093734500477 -0.0676845158959046 0.0406603819633138
 -0.262233768136497 -0.686098554643707 0.355446204726201
 0.389941307951093 0.132051254183352 0.296278941742408
 0.234321882278189 -0.701498776071177 0.499860456156384
 -0.0388817344771159 -0.0553186411007002 0.401587146312434
 0.0235266617073458 0.408098230463352 0.35288655600423
 0.086211828636194 -0.475741949011887 0.467232199688017
 0.0353767072717563 0.406909590274082 -0.417198031685389
 -0.346173496848871 -0.663125609430938 0.0217472035375688
 0.452980887107403 0.363688397922964 0.150008512308226
 -0.246123483732007 0.0599430526381632 -0.212469936346032
 0.349173286243569 -0.422917755058713 -0.402165743849463
 -0.186747515093341 -0.0162081330541686 0.30073893960917
 -0.337781217571587 -0.265676580005349 0.0272859252247497
 -0.051970349038484 0.382728540129745 0.0885400072544777
 0.349067385399659 0.420612378258058 0.280819687313527
 0.418738047767233 -0.363117909118333 -0.346719183788564
 -0.225523304696439 0.117158284709632 -0.323141958238979
 0.461381440636635 -0.745125314433729 0.249891995442498
 0.525891992005257 0.352372774294157 0.136434775776562
 -0.284143578219973 0.231610720375075 0.0698123869743571
 -0.101567369897885 0.468516561293536 -0.351931803485014
 0.372137591496924 -0.703604779903996 0.443515805903359
 0.351450964839126 0.382728540129745 -0.0843303821026056
 0.51980829405618 0.378256921543207 0.142915882391186
 -0.35278649085329 -0.101033109772115 0.172067793778818
 -0.0251317139094624 0.0735101109881707 0.388946445002594
 -0.323810740003938 -0.254829236715324 0.111123916717731
 0.249812027432264 -0.707563415705998 -0.493629500774889
 0.114393566035395 -0.793693580079565 0.35380625964895
 0.594267078186624 -0.365106581573939 -0.206500165904764
 0.454487017529285 0.124003574100959 -0.221632772484745
 0.629515172124484 -0.691234651876582 -0.0363811269133091
 0.586566467007615 -0.20128581697663 0.186251531367259
 0.302251826205925 0.148821856558008 0.423612116468271
 0.0574917253368226 0.425040006597438 -0.362851359322926
 0.421812899490944 -0.529349742098571 0.432039532231908
 -0.276662360544942 -0.842923493621133 0.0268473013715447
 -0.128072625238505 0.126146374195193 0.399616336519434
 0.121234563534292 0.328330313487738 0.437115339752184
 0.107500577297545 -0.293169554939537 -0.516761056697198
 -0.489189054093621 0.0911017937278777 -0.105540621673786
 -0.339303249766132 -0.28648400434966 0.033092759878415
 0.221457825110503 0.0327183077255916 -0.468274437762711
 -0.488444873331817 0.263787979322907 0.0165608474260585
 -0.676605343784395 0.194741134290092 -0.0898172880800102
 -0.315617793656797 -0.59369456785988 -0.187444521456378
 -0.122061168789972 -0.119484006758761 0.438896958751011
 0.489054261028436 0.533482089511945 0.157433948362417
 0.373349820645019 -0.767909140147326 0.408101255656474
 -0.339352988026898 -0.673079659192652 -0.0712154329175751
 0.451202778717992 -0.204965199689236 0.380209465268205
 -0.395052297144377 0.166251929107748 -0.126785598607078
 0.276653803079206 -0.90006418592293 0.110369134100905
 -0.27566425749506 0.276197776218184 0.217453876726806
 0.0795268679342908 -0.13126071615894 -0.437557523498908
 -0.190327962868372 -0.235258666322398 0.331224939580241
 -0.095534670025829 0.534657517784291 -0.221972047816254
 -0.286692399545867 0.168614782815858 0.104933965817217
 -0.0578197174918773 -0.825116126204378 0.0752076740254091
 0.139742103563908 0.382682627566024 -0.138460327921267
 -0.494729287768401 0.24650556028195 0.109335325820104
 0.561745524490824 -0.625277790282736 -0.137930325514456
 0.468867718782747 0.240135973293917 -0.278017016507871
 0.276552704218655 -0.90011009848665 0.064604645736302
 -0.156770080619471 0.13800491877626 0.378455750881639
 -0.0817428271385452 -0.817645360068994 -0.180447866259361
 0.464570804046388 -0.777115506355566 0.169255540541201
 -0.0308493127396542 -0.667005304434177 -0.501041360063199
 -0.327272151381553 -0.409133178458787 0.285041703196084
 0.135159542997675 -0.90011009848665 0.178061528186531
 0.145792308749991 -0.556978229933247 -0.529236193265484
 0.0255948781663078 -0.55905123269586 0.461565524058933
 -0.224521589641837 -0.469210678244238 0.405776831800904
 0.434680306638236 -0.858543184414646 0.154226924710746
 0.0161316520375136 -0.0481230959039142 -0.480295885759682
 0.532158480919679 0.0241627170586569 0.0425200856263305
 0.0494896400506891 -0.103906651736454 -0.43085842452146
 0.298490255439974 -0.478791536501124 -0.430499418800664
 -0.109628398248767 -0.886374556491093 -0.246841406171321
 0.100282079732877 -0.112493768846215 -0.436560306949525
 -0.254032019627146 -0.631684703659142 0.377216202888654
 0.620722555501663 -0.345878581115627 0.123725585000283
 0.508979825913041 0.264547401731505 0.209047896058231
 -0.254484121010618 -0.0452411281940146 0.221054312864732
 0.235407759669891 -0.0449876237473152 0.411040282630024
 0.522710578891074 -0.123213796289036 0.158872208388961
 0.618946782339447 -0.705661060982242 -0.0891107411122743
 -0.320076735247826 -0.105950908369185 0.0520297538773104
 0.44358229427946 -0.846967634575201 0.198686598508964
 0.372059103483645 0.0367818595496668 -0.404483724911475
 0.599628032424908 -0.763496999822878 -0.0227527690645702
 -0.267095721236615 -0.186203773345941 0.332166969831535
 0.439584228294032 -0.00860068957381094 -0.272177142937083
 0.367750106582734 -0.30794553285694 -0.451468375590131
 0.352954039572495 0.370161557269834 -0.281892892028312
 0.410368053239949 -0.576493197198575 0.439832891580095
 -0.0069409901455494 -0.817013446889927 0.241588462263997
 0.278226029279595 -0.0169472451687985 -0.392141315533406
 0.598899141216521 -0.0216407929760094 0.0533143022183472
 -0.403723188855095 -0.391427238554558 0.0793525713861413
 -0.0117127256583846 -0.48114116630653 0.450993980178805
 0.505816647904115 -0.751097769567769 0.153441562307506
 -0.322390267249438 -0.592430377915993 -0.299381569439902
 0.577141039562808 -0.571915582950028 0.258540776021212
 0.0952330250746393 -0.31433963106093 -0.517950884086247
 0.503840355401956 -0.776623341699612 0.0011455188319935
 -0.129728736998603 -0.798906942539202 0.386484767812707
 0.436206504955557 -0.0801196636551527 -0.289421652397501
 -0.287654057142113 -0.655283162275036 0.335562492348295
 0.543621059686143 0.375131459994719 0.0207406632791914
 0.133441291004507 -0.624516536446787 0.526998930870196
 0.57159350866615 -0.135874493481792 -0.204024676478435
 -0.313366839912358 -0.370522793611225 -0.173939219485106
 -0.541960942962396 0.0840301917436533 -0.0825979772942076
 -0.613500717532577 0.303294292622772 0.0347460357658815
 -0.238822950508212 0.383556003221979 0.0034715377911056
 0.218074847911985 0.175542533956102 -0.384582747129235
 -0.0756856138354052 -0.0224554061458879 -0.448090321002881
 0.458018403464084 0.214953008235913 0.189617397708441
 -0.143354735120556 0.294733775610885 -0.280140769043604
 0.250063979340301 -0.90011009848665 -0.0603414565495489
 0.542087000288639 -0.526386907106688 -0.196151270480102
 0.49076801412661 0.445261478320346 0.124381486027618
 -0.401789672709655 -0.357312902894494 0.0759002741361044
 -0.408991722131489 -0.57677948566971 -0.0829946233852277
 0.450179195152799 0.256558749569538 0.19121299858189
 0.429681750358342 -0.745203246103007 0.384258575501224
 -0.239352278712691 -0.858652803175178 0.020893430139444
 -0.128313696067902 0.0156620594304203 -0.416565275595492
 0.490389311132964 0.316611079630214 0.226546915908056
 0.0215428976278972 0.441161139431825 0.390459502834389
 0.248910733550532 -0.808262434206555 -0.287605055664037
 0.482006472405728 -0.082416352088855 -0.230147255247829
 0.550079420487034 -0.227443710788795 -0.266372882986014
 -0.342938320995245 0.111421520955701 -0.158956133832744
 -0.0201747171102929 0.242060124313733 0.429228251219001
 -0.263922242965375 0.0456369169120002 0.187279933476289
 0.0479501540438834 -0.300008808705704 0.451311536438545
 0.428107390235602 -0.794588766308621 -0.158307478720127
 0.0759858445815111 0.167203913250521 0.459217140689695
 0.121285919524845 -0.90006418592293 -0.208875053552169
 0.0462580132862037 -0.824715562124195 0.183954501820409
 -0.319417250098391 -0.254145701507987 -0.274590527760017
 -0.409387688837186 0.215288398305309 -0.109428854957356
 -0.295283837190608 -0.240615769565501 -0.306214423867344
 0.482695502666427 0.43886064895756 -0.0943756682116925
 0.434870489684557 0.0233324406892638 0.271031906391868
 -0.625644486595823 0.145012831875194 0.108583084785959
 0.493249361125344 -0.402604643936028 0.363767836517455
 0.0393110990926815 -0.147020402088007 0.496024498134038
 -0.397070212982107 -0.240777867685959 -0.0159112248860147
 0.509622028000206 -0.45987277916581 -0.250869595212932
 0.529637136580428 0.162484828901621 -0.202522925909304
 0.5065617210938 -0.1464358455832 -0.313831193397768
 0.343656649287728 -0.569888467462951 -0.409890254987237
 -0.139580418689307 -0.261710736960474 -0.374605368480323
 0.0513021477452794 0.171068831967335 0.455971199657428
 -0.00344793632978892 0.463593692596666 0.395325605870299
 0.555573511035903 -0.69385244212111 -0.267754746330405
 0.590570754355775 -0.0598748756739387 0.122567885811699
 0.405649944315348 0.534657517784291 -0.112564580190801
 -0.40986686296849 -0.464559316251818 -0.067260389084783
 0.421779067876739 -0.268913721812047 0.412464891922328
 0.41001634873942 0.534657517784291 0.204942096617338
 0.38112262374716 0.0237325113798688 -0.400210152342587
 0.0178270980762168 -0.826512258842416 -0.0844808662752122
 -0.116788084550919 -0.529025073784904 0.477919369196448
 0.529834509283387 0.339964449725332 0.129726171151265
 -0.0440520044650047 -0.308526727677303 -0.493078731264103
 -0.179803682794701 -0.381056992694466 -0.357409479811365
 0.549249694883744 -0.314664567860794 -0.282822556331672
 0.0654223797648039 0.534703430348012 -0.346818137145502
 -0.301023249271407 -0.151583457400255 0.150963233550037
 0.565186018397982 -0.246890801450437 -0.01943734716133
 0.580804305515616 -0.713038758851005 -0.207607356398218
 0.517794329007539 0.061741175864616 0.253304368969227
 -0.0807861990447051 0.414958044926231 -0.303422665517936
 0.0661820395752153 0.382728540129745 0.0445024447847451
 0.0618493939265708 0.498031865214512 0.409488420987647
 0.134107427300912 -0.243135389432735 0.45036202952613
 0.333320561280361 -0.694609337765049 0.467149592085755
 0.280704671070821 0.436397887073373 0.319895627705868
 -0.342908487233522 -0.0864933672475626 -0.193920445159303
 -0.310757592066973 -0.548928047147645 -0.202102274995134
 -0.158951224282629 0.350503907214191 0.252588983893957
 -0.342662255646356 -0.317594278446831 -0.0248527072226414
 0.589629904298214 -0.296555786106207 -0.202914387176275
 0.634971464172805 -0.343901879106127 -0.017715150367267
 0.138151958569949 0.35993724392402 0.369909533465216
 -0.158334463961764 0.290163403580797 0.266896520412838
 -0.565345677396239 0.165217832994872 -0.0831623484475519
 0.229516739425904 -0.824608811103135 -0.163032572383312
 -0.338735910534589 -0.497942528196996 0.120977467827612
 -0.229698334779239 0.327289039804223 -0.152948820457016
 0.0493643978276092 0.534657517784291 0.126852019046543
 -0.19745266336481 0.382728157789985 0.149501238861843
 0.430505115804038 -0.663686957956941 0.416008362562652
 -0.240988602167284 -0.642221836656767 0.29995156203442
 -0.13847494036756 0.305601588696894 -0.282313204978193
 0.545310761360778 0.369071312851183 0.00756842046657222
 0.204241062113237 -0.826512258842416 -0.0671651056324812
 0.465133640300335 -0.241547125579739 0.37259920913051
 0.451892028541739 -0.234163419702374 -0.383489803083391
 -0.403558652484057 -0.379675661004712 0.0755870662813693
 0.00747551433605151 -0.831245328706669 0.400696355059224
 -0.244806646608337 0.438121702008763 -0.120298856873231
 0.273749155899613 0.382728540129745 -0.295474046696203
 -0.0789946493202648 0.276460908062779 -0.331197993112662
 0.46202099319472 -0.330642639548457 0.38632582023162
 0.578384867835099 0.00121169631186677 -0.136710507081334
 -0.200062001361042 -0.334035628378062 -0.414354353881861
 -0.0843389859275629 -0.0783225869404097 -0.384406375306145
 -0.132101608636542 -0.554924978713976 0.469496214907917
 0.445710785164815 0.302757582374758 0.184863180963727
 0.314845861425064 0.0732373323920972 -0.430033971821328
 0.338863433448918 0.120047741525713 -0.338821275221095
 -0.128960293814045 -0.115039151422669 -0.434474894011354
 0.583498156997519 -0.618538197906994 -0.00301079980000656
 -0.386139075403639 -0.12978886354911 0.0135847858296788
 0.551736183495168 -0.327594044687663 -0.281281336022607
 -0.248024126826296 -0.776533468075616 -0.141363734864315
 0.203286408256311 -0.824581073101062 -0.178433673246946
 -0.338058181608421 0.0585816574212704 -0.0733340723970186
 0.565726384977546 -0.00717227651660736 0.177314089371085
 0.177168024555539 0.208220153929179 0.450513529459518
 -0.296979842647957 -0.747028109486684 0.108026965299196
 0.354839990736101 -0.900064195610796 0.19029749852623
 -0.0670333745376138 0.0867476387492666 0.43591890032973
 0.632569931921346 -0.436910077753368 0.0960385673014368
 0.01903438531363 0.382728540129745 -0.163179767507668
 0.471358939372584 0.221511286976075 0.27932878646824
 0.413452193093038 -0.615098261276517 0.361187816955301
 -0.219274288973917 -0.203656762642402 0.382664173694108
 0.31027347514608 -0.237326634529188 0.406114037147107
 -0.156967542192931 0.534703430348012 -0.106768078498376
 -0.598845837765128 0.277057183382617 0.113028776852139
 0.5683442913615 0.0644944155234884 -0.141052597281655
 0.0853194304870359 -0.0611801821085961 0.490701911960319
 0.612081718178792 -0.327214754369673 0.148753672874816
 0.225466394600699 -0.784969550335976 -0.358292364985306
 0.540324746222209 -0.274849669316887 0.157407421786151
 -0.0882439383469134 -0.0807533177798643 -0.382553622730414
 -0.39644736178326 -0.711601971210542 -0.0105950506152792
 0.130878098028806 0.382682627566024 0.299123010774049
 -0.479261421247539 0.168996145894924 0.089021309257618
 -0.250516159920781 -0.788674877952826 0.0257120215092028
 0.59505638826318 -0.22796176970343 0.172860545006985
 -0.69304353476673 0.146686542105638 -0.0783362259851277
 0.606287889342373 -0.591537696306071 -0.196569604995241
 -0.304422306586191 -0.12715785658786 -0.132494651153584
 -0.681483753999413 0.172120911130898 -0.105664307763588
 0.162448599367332 -0.810588682044539 0.441905546968135
 -0.193669869877433 -0.237202409501923 -0.328415186768952
 0.424120831983276 -0.75188745763794 -0.385093314540245
 0.512437687767451 -0.831539413104267 0.113846476044018
 0.185005020715736 0.305531718752554 -0.372376252801506
 -0.390266519878935 -0.394922161940068 -0.142176719797696
 0.172346866268856 0.257782193375096 -0.443975973585485
 0.49307666963398 0.100011252729388 0.15470485212812
 0.435279921764359 0.534657517784291 0.229974064964219
 -0.307083636794901 0.043174829808531 -0.236170067135213
 -0.08720492299463 -0.743481808207864 0.454757841573728
 -0.178030660311317 0.270738905799226 0.336486073620804
 -0.128981743929982 -0.139456882824335 0.366556887798627
 -0.377769863630967 -0.674178780367821 0.171828137577771
 -0.313046401638951 -0.490738904762289 0.192787449724842
 0.461035557777656 0.21683341559905 -0.292617426474006
 0.227770082795447 -0.826035712756649 -0.121137709900692
 0.018303789707876 -0.816838662776894 0.253364452730337
 -0.332645719760972 -0.689519255887287 0.259423571716696
 0.486092293064132 0.294454437174263 -0.239929726037422
 0.226263209097988 0.534657517784291 0.132555304437909
 0.613689878997408 -0.176230185452462 -0.0754958482575094
 -0.067923238509136 -0.45954917358624 -0.495913236470639
 0.439229575328227 0.219383368827953 0.316477702739992
 -0.375927025750087 -0.40989572569509 0.18882875777906
 -0.299891207836795 0.373961558930235 -0.114513151994624
 0.0572361705158743 0.310799818218053 -0.436011988106267
 0.507152085868928 -0.657036633024845 0.345641142346954
 0.630810728449236 -0.646249107108255 0.0941371990464353
 0.242637290687272 -0.820860648880407 -0.21396727962066
 0.106648242248999 -0.206311355073683 -0.508336638313349
 -0.221283998765085 0.172850049210072 -0.315800913126746
 0.125203823954405 0.405916142794995 0.360360086753517
 0.00127564272632781 -0.523994401145906 -0.51846979573985
 -0.313655110896025 0.178765137517116 -0.185406767347618
 -0.305723257533044 -0.675188152400916 0.184877216957965
 -0.479595667628284 0.270996963676111 -0.0848023582187748
 0.447799512605419 0.253149776700484 0.196567562539063
 0.631373757087391 -0.348992586664077 0.0681950573389975
 0.018471711401602 0.39753862197655 0.415925282675407
 -0.324675325491653 -0.365057742324739 -0.142326928618126
 -0.149134920911328 0.534657517784291 -0.0137200948360741
 0.634041927866574 -0.366056710693075 -0.0603370401371757
 0.611304080270079 -0.106597448032403 -0.0172867837334151
 -0.0917225681610364 0.312323953937328 0.317175874457066
 -0.190566483759086 -0.702337062914953 -0.332075577342337
 0.470127343811329 -0.586807702434161 0.392774101365847
 -0.220844177409579 0.260987723593599 0.193757648288049
 -0.0230428541558931 0.534703430348012 -0.182448670486297
 0.490042559004044 0.290437582679134 -0.235196026474186
 -0.176770120687978 -0.442228681333303 -0.365656766249475
 0.0270874887677937 -0.370426158699561 -0.515357183385917
 0.482409875352911 -0.167729923109639 0.246621196179371
 0.51199675800762 -0.0664458263252675 0.166738854607662
 0.257032109979066 -0.209389799438534 0.42446979632051
 -0.388976429839093 0.212369463466527 0.10769062838861
 0.00757247823492035 0.534657517784291 0.126786734947886
 0.00935903426889597 -0.888092383396415 -0.315849231008839
 -0.471288148140152 0.175570759629369 -0.0880668408515826
 0.505238904608646 0.193696538820175 0.0613908843013004
 0.157620311830341 -0.634416602066378 -0.525010921695864
 0.564179030174401 -0.446706135862629 0.276480956741292
 0.0398739838450079 0.391175515637973 -0.358454880666878
 -0.101369226311116 -0.478727954728464 0.415658304774665
 0.444715602421936 -0.77403188779233 0.21204888069622
 0.279919807950618 -0.758713103336677 -0.376130256160858
 0.468171037736365 -0.137807449907803 0.261117027264795
 -0.249485697067266 0.445307364481019 0.0219470618581241
 0.569663466791184 -0.6924796319678 0.0242745376268808
 0.149844491490769 0.524715405357963 -0.411015758375834
 -0.132202426745758 -0.318492568613322 -0.386241312066284
 0.24668809553307 -0.826512258842416 0.0254674267792902
 -0.0249913124692354 0.427320598230267 -0.394808498928248
 0.524924537350261 0.304577847115292 -0.15993513435087
 0.215638504430647 -0.00479339821337152 -0.474284015783501
 0.508850374546956 0.155493359378199 0.0731750051535841
 0.00965660136086781 -0.82432982311898 -0.176169499342632
 -0.0258055216239541 -0.458946021470974 0.445984955053772
 0.394763595127557 0.157782491797711 0.287050916473027
 0.396888782095651 0.0362315420352138 0.387049255797496
 0.238989092687451 -0.0711833717757844 -0.413336596605719
 0.0857118269286709 -0.556528029146028 0.529385209264617
 0.264073609923015 -0.381615439475621 -0.501746077529945
 0.438174314033456 -0.896148133388183 0.046311289239394
 -0.0787041582776521 -0.482075656624216 0.426856008649295
 0.00036825034190837 0.338267424612798 0.420187417977278
 -0.102205821937664 0.441952751477777 0.332410952975608
 0.179906522672569 0.382756625013879 -0.34370332671226
 0.560908007808309 -0.317411317671581 -0.103330297207558
 -0.0101077106523625 -0.0568988523066259 -0.475208600110578
 -0.313523556443086 -0.553320551497732 0.195245728730685
 -0.284428327896267 -0.83579602511392 0.0742631326534016
 0.516677017125057 -0.72192700090376 0.179708357577835
 -0.284612352388122 -0.298588536895521 0.220553978303297
 0.225934081007081 0.323202659278183 -0.359498250468129
 -0.339191949442173 -0.732306123734222 -0.217521398342185
 0.387224795939944 -0.252813343636324 0.434900931811058
 -0.0129054128451617 0.203725637612813 0.437144970713483
 -0.357785284586681 -0.762719118510178 0.116896363686276
 0.502359439204911 -0.300215083679457 -0.240922074923304
 -0.519708649637317 0.180883148050813 -0.12962446198177
 0.29858712157301 -0.263144286966497 0.413636629420878
 -0.190290910377695 0.382682627566024 0.129176925003757
 0.621396923953593 -0.188917476554837 -0.0014112216445617
 -0.202411043600825 0.281188257744682 -0.216430011147852
 0.332438854348161 -0.290635889558141 0.399594365461334
 -0.0505956471930737 0.126399626334471 -0.370330610845211
 -0.169353244957234 -0.815444844297647 0.332629901671767
 -0.202402526403565 -0.77187752265213 -0.235368994055595
 0.0772748303647855 -0.90011009848665 -0.119451581753389
 0.109566230473742 -0.90006418592293 -0.25852288376971
