 -0.530703714941007 0.00182846190637197 -0.0506790416114215
 -0.339022936458408 0.130085358007499 0.0432075328230972
 0.0910978588371759 0.130085358007499 0.89222277151306
 0.21308533094252 -0.132928811195052 -0.0705418977410536
 0.198309872337246 0.00426583389785357 0.964673768327118
 0.182984823989123 0.130085358007499 0.112065487425335
 0.314033376929837 -0.114276617111097 -0.110373979205209
 0.239981685707553 0.130085358007499 -0.112821049764779
 -0.267012774335786 -0.111924088127535 -0.224473288606198
 0.308969237417835 -0.111924088127535 0.0946155304833315
 -0.113469098189231 -0.111924088127535 0.755379309992462
 -0.0919845608613146 0.130085358007499 0.129677757246441
 -0.235425937430186 0.0303927022203883 0.900822245328855
 -0.355206374026692 0.0295750604936136 -0.10731205084835
 -0.0671415532581325 -0.132928811195052 -0.42721722187867
 0.449393568872851 0.0194550985377961 0.10796445341269
 -0.276028811307232 0.109080634939982 0.0538249244082565
 -0.00475303235073301 -0.020612666677709 -0.0049240330537204
 0.0593117000995596 0.109080634939982 -0.549851778125085
 -0.00865182916155882 0.109080634939982 0.139111564145791
 0.354019776907555 -0.132928811195052 -0.118826326145288
 -0.290263169309828 -0.132928811195052 0.0259041787870518
 0.202734315507781 0.130085358007499 -0.0255587458312084
 0.218222051615499 -0.00708773380625825 0.840976282852972
 0.214236400377074 -0.111924088127535 0.0129267779339727
 -0.239037541963099 0.130085358007499 -0.22215427115901
 -0.121531619874262 -0.111924088127535 0.121006439573155
 0.315654777549347 0.109080634939982 -0.259616120452232
 0.22636173636784 -0.132928811195052 -0.451555781243717
 0.509458411563313 0.00767919045268837 -0.233974452197636
 0.239337947075265 -0.132928811195052 -0.418855311133743
 -0.315896328084479 0.130085358007499 -0.274700971594083
 -0.105199513684765 0.0116875058325064 -0.227185984804686
 -0.102323237363023 0.109080634939982 -0.485656632059637
 0.291316893943276 0.130085358007499 -0.100559395026499
 0.120392382300281 0.0121606826571106 -0.115311486332997
 -0.263896728080646 -0.111924088127535 -0.430385093495049
 -0.201616447506488 -0.111924088127535 0.0755833262428875
 -0.311249987639368 0.109080634939982 -0.220725595594235
 0.298946231332218 0.00416583798474471 0.292091397640248
 0.396283345840723 -0.111924088127535 -0.0595715126481152
 -0.0202297861609677 -0.132928811195052 -0.404041585715743
 -0.190412720329784 -0.132928811195052 -0.30093110410517
 0.518095689771303 -0.0163311032671443 -0.158239618772369
 0.0811334347681342 -0.132928811195052 -0.499720084986483
 -0.283964791237814 -0.111924088127535 -0.432367536198733
 -0.321439537588484 0.130085358007499 0.0277141160004893
 0.0219721559538445 0.130085358007499 0.378564295791741
 0.23222657651803 0.109080634939982 -0.409279594404368
 0.0465215422782305 0.130085358007499 -0.488853692713348
 -0.320301000237126 0.0249756158407628 0.0474676022341461
 -0.112395370115182 0.130085358007499 -0.520112443340461
 -0.291381621385383 0.109080634939982 -0.197882198289985
 0.123779201922659 0.00956607069204215 -0.454519992393805
 0.117607451519883 -0.111924088127535 0.5028914201331
 0.353853272709092 -0.111924088127535 -0.287358788817917
 -0.0889279133299766 -0.111924088127535 0.168266441672343
 -0.135979606630838 0.130085358007499 0.382340555740079
 -0.179209880099191 0.109080634939982 -0.386204637445624
 -0.0877435090315034 0.130085358007499 0.778206620941422
 0.334530935335696 0.130085358007499 -0.128629778739586
 -0.13351026526955 0.130085358007499 0.371913702219156
 0.237404732649729 0.109080634939982 0.182656613186745
 -0.0969919630069801 0.109080634939982 0.171058816650253
 -0.056602271305216 -0.111924088127535 0.497007177875717
 0.00264109908356642 0.130085358007499 -0.510328784758279
 0.50534820944841 0.0223657206606225 -0.0637752560653582
 0.371307962602096 -0.132928811195052 -0.22067771016247
 0.375024225947272 0.109080634939982 -0.0042775827109691
 0.214821597357093 -0.0168676677901639 -0.08369444016378
 0.0837083692166487 -0.132928811195052 -0.462568715722659
 -0.223498525575455 0.109080634939982 -0.365665858996803
 -0.206783583564479 0.0296721244415431 0.344692138532553
 -0.0177417755122434 -0.132928811195052 0.225311200901219
 0.207168361002311 -0.111924088127535 -0.0246724333560316
 0.34866951503687 -0.0071242238659491 -0.524594774644285
 0.218178626534013 0.0263568124660134 0.874688586595347
 0.25964290638093 -0.111924088127535 -0.203608221908956
 0.190490037913375 0.0413344212623956 0.228383921292613
 0.0693965562347004 0.0120857164456987 0.179047815361347
 -0.206443252549438 -0.132928811195052 -0.499118632205515
 -0.0736633875175807 0.130085358007499 -0.400917088125723
 0.105676380396157 0.109080634939982 0.185675863763471
 0.0798726605909264 0.130085358007499 0.750359213783961
 0.0814059739982314 -0.132928811195052 -0.427054815968677
 -0.309125808555831 0.109080634939982 -0.0345513022728464
 -0.266180937355563 -0.000561543176004263 -0.0338378091367709
 -0.0831154072577435 0.130085358007499 0.878365096969656
 0.290960690060276 0.130085358007499 -0.0627346046395972
 0.196266800611357 -0.111924088127535 0.214531233419984
 -0.168555244980326 0.130085358007499 0.153706356079873
 0.218222051615499 0.000533331692093108 0.774312332020401
 -0.314697940204593 0.109080634939982 -0.426861990771205
 0.0490035969696773 -0.00297964419464698 0.388345284342936
 -0.0885939976302654 0.0122639617268603 0.188628676535528
 0.263584049691993 0.109080634939982 -0.113966103279037
 0.234175269985318 -0.132928811195052 -0.182840199612837
 0.277417462834431 0.130085358007499 -0.111514489781822
 0.255387965534788 0.130085358007499 0.13593489578687
 -0.437611413609524 0.0240223323007832 0.15888957439161
 -0.298069550042494 0.130085358007499 -0.282959758385124
 -0.132390432202333 -0.0242204819816657 -0.0889081239594911
 -0.151808896723738 0.109080634939982 -0.476616597250939
 0.00584915509151419 0.130085358007499 -0.446927064345654
 0.00543052936876101 -0.111924088127535 -0.440745971146227
 -0.363356182228337 0.130085358007499 -0.243819097380365
 0.0603388334435584 -0.111924088127535 0.369747860045732
 -0.279859675218881 -0.111924088127535 0.116872777797841
 -0.310802399923822 -0.132928811195052 -0.155109492489146
 0.279269746766549 0.088075911872465 -0.0984027927507989
 0.276852469468891 0.130085358007499 -0.246941529202827
 -0.270212586640315 0.109080634939982 -0.0719472351018041
 -0.248325570246258 0.0198173445903593 -0.33073076060956
 0.512697620410837 0.00559617499175309 -0.0581840467418593
 -0.276503551200551 -0.111924088127535 -0.240598533631417
 0.316972779254413 -0.111924088127535 0.108816656266543
 -0.163585159316503 -0.0185550234417723 -0.641732958133489
 0.145157001360857 0.109080634939982 0.0385992918823967
 0.0466432350643387 -0.111924088127535 0.841507229934201
 -0.129464850619503 0.130085358007499 0.525993381449233
 -0.0776548078344458 -0.132928811195052 0.201300797877405
 -0.245445757703322 0.130085358007499 0.0672809208490583
 0.0210116170159151 0.017541982032684 -0.264628556383847
 -0.0523728751898117 -0.111924088127535 -0.376346489575953
 -0.0395177793980387 -0.111924088127535 0.491148324102309
 -0.358676411844788 0.109080634939982 -0.270755961597919
 -0.318211623258558 0.0211668383051486 0.0467887210724702
 -0.130543375102585 0.130085358007499 0.861501760902192
 0.0530265682600795 0.130085358007499 -0.534393622046101
 0.384553891187268 0.109080634939982 -0.112856224051605
 -0.099472620924893 0.130085358007499 0.658825124952315
 0.217252190711805 0.109080634939982 -0.457069901128799
 0.368371434385009 -0.132928811195052 -0.102962398044359
 0.198678178057733 0.109080634939982 -0.400341604645665
 0.459649032937229 -0.0169511223727553 0.105783381967761
 -0.523738729080989 0.0158166843936251 -0.0581510510674375
 0.0382511230967682 -0.132928811195052 0.145499743417693
 -0.467802000275918 -0.0327490948709249 0.126057463256471
 -0.0548391863282552 -0.111924088127535 -0.376737874319642
 0.108562201279169 0.130085358007499 0.808821050472467
 0.118901755540785 -0.132928811195052 0.075269825874711
 -0.123231551952499 0.109080634939982 -0.364710175666208
 -0.281388762168528 0.130085358007499 0.0472101701149697
 0.17053317268879 0.109080634939982 0.157602681117086
 -0.384566441712157 0.130085358007499 -0.0895954728803744
 -0.0745499499591638 -0.111924088127535 -0.474296108853598
 0.131110912629356 0.088075911872465 0.164460885082006
 0.249426788680383 0.00598033480528626 -0.0770715113347441
 -0.0380931440660283 0.130085358007499 0.132019414715091
 -0.237419493011064 0.0122650441733565 0.297469369049629
 0.287612919123636 -0.111924088127535 -0.432628083116617
 -0.041906504060565 -0.111924088127535 0.123119773842741
 0.00680339394972255 0.00894646027106862 -0.267251831630118
 -0.200991019414707 0.109080634939982 0.138633210056621
 -0.158648677052822 0.130085358007499 -0.397450175090766
 -0.527328124879001 0.0238813143709028 -0.087170741505724
 -0.0536746771488571 0.00877620522441767 -0.654728768148478
 -0.142265400704269 -0.111924088127535 0.254732592355055
 -0.218403022551406 -0.111924088127535 -0.286898708886033
 -0.394177581633539 0.109080634939982 -0.200885580854238
 -0.481951286215905 -0.00966151513231129 0.0996762954389062
 -0.237419493011064 0.00997544764155414 0.267442299821513
 0.048640277551641 0.0127943298092967 0.876222943547057
 -0.0908618127501377 0.109080634939982 -0.436337372158107
 -0.169907631213979 -0.132928811195052 0.148246857341924
 0.361053346184757 -0.132928811195052 -0.140365234592784
 0.161233222508245 0.109080634939982 -0.419615017037202
 0.242010349264966 0.109080634939982 -0.0144307196290785
 0.21896885273399 -0.132928811195052 0.103238052840779
 -0.0305088268983623 -0.0183915418104096 -0.00650156188633487
 0.317255032247137 0.088075911872465 -0.178505240760227
 -0.0416439489253876 0.130085358007499 0.633659534169425
 -0.283277183316523 0.130085358007499 -0.452935160581383
 0.22980328289191 -0.132928811195052 -0.3449520619734
 -0.0977625471173936 -0.132928811195052 0.279152837521553
 0.247619409307985 0.109080634939982 -0.44008490077767
 -0.231777090207968 -0.132928811195052 -0.418490628816738
 0.194238647007089 0.109080634939982 -0.365248745689553
 -0.366339376437067 0.130085358007499 0.0815345050465118
 -0.137358654209425 0.130085358007499 0.176054581338307
 -0.0562227260266112 -0.00756069077458953 -0.662625129893067
 -0.00580402643925949 0.130085358007499 0.916020655788575
 0.0321004988768278 -0.111924088127535 0.398213396614297
 -0.322579689462561 0.0301735293791271 0.278792145943182
 -0.0977666316839476 0.130085358007499 0.863396528783076
 0.270231649310935 0.130085358007499 0.11181152644693
 -0.304918695745892 0.130085358007499 -0.325657918012251
 -0.171971069831491 0.130085358007499 0.043568282869935
 7.20956654800322e-05 0.109080634939982 0.0992094825312783
 -0.319759413004157 0.0298993469952298 0.280892752209017
 -0.0234917449539419 -0.111924088127535 0.782548091176078
 -0.126578633578895 -0.132928811195052 -0.477947814988593
 -0.370813612073089 -0.0114454552405493 -0.521838656977096
 0.282567060698232 0.109080634939982 -0.00978824988754348
 -0.0526578322994406 -0.00797176661536797 -0.261040300907437
 0.24111533724502 0.130085358007499 0.127616880212606
 0.319090810807953 -0.111924088127535 0.112217016725985
 -0.195555492814659 0.130085358007499 0.155402013340989
 -0.134394056318289 -0.111924088127535 0.467760015485525
 -0.396733476650314 -0.132928811195052 -0.282183915704693
 -0.105708954616228 -0.111924088127535 0.254835714157637
 0.247179053192009 -0.114276617111097 -0.00111745528431081
 -0.00417042502954862 0.018802169395769 -0.656577063897113
 0.05333570239936 -0.111924088127535 0.589235200780299
 -0.120313577920239 0.130085358007499 0.22580420116968
 0.0509226491520276 0.130085358007499 0.955567129516712
 -0.310205046074938 0.130085358007499 -0.418057461175398
 -0.353950106100826 0.109080634939982 0.0381283982268964
 -0.117146524901112 0.130085358007499 0.707962836435295
 0.0756228707093607 -0.132928811195052 -0.527890105468813
 0.235676069953537 -0.114276617111097 -0.0369668442138779
 -0.0974567733204475 0.130085358007499 0.199580010224934
 0.218222051615499 0.019162974607195 0.835293859600233
 -0.117172759562538 0.130085358007499 -0.401551642283017
 -0.00811265698051312 0.00616858061842035 -0.00483330374062159
 0.209311187461868 0.088075911872465 0.075584231522245
 -0.0388947380301013 0.0234848984362667 0.821276333696353
 0.0260203527955709 -0.132928811195052 -0.37871173467895
 -0.0488947235635016 0.0148370199767408 -0.655134697986352
 0.0710795190533125 0.109080634939982 -0.54324526218711
 0.306988042735689 0.109080634939982 -0.163543950120287
 -0.305318076320482 0.109080634939982 0.0566379578323971
 -0.0138416269336573 0.130085358007499 -0.418279438917717
 -0.131711470590405 -0.00314494021863938 -0.650348461948814
 0.200773534583228 0.130085358007499 -0.472478725540412
 -0.0881911811329887 0.0012733960718597 -0.0308470202846979
 0.382458004000633 -0.0337511116700758 -0.174477339095788
 0.218222051615499 0.0230702824111143 0.531671562820952
 -0.0174693633753372 0.130085358007499 0.778840855781469
 -0.334229612662631 -0.00631859819514552 -0.5531163581961
 -0.0302850057629112 -0.0106316004270907 -0.266692174950956
 0.089315097047048 0.130085358007499 0.93858088804816
 0.0440141162724958 -0.111924088127535 0.605557436728645
 -0.389375430765791 0.130085358007499 -0.139872532273248
 -0.354934774999107 -0.111924088127535 0.0983501132341482
 0.110494293699988 -0.114276617111097 0.145194690828174
 0.0949516375367863 -0.132928811195052 -0.351430327916698
 -0.390286952053182 0.130085358007499 -0.107404508322033
 0.0238998476260284 0.130085358007499 -0.503995745329311
 -0.332041401232523 0.109080634939982 -0.153455258760403
 -0.412997863892048 -0.111924088127535 -0.0438300714524837
 -0.208024305137877 0.130085358007499 0.0685522379380785
 -0.244461952249974 0.109080634939982 0.121353197053734
 0.480016843631532 -0.00111630008102869 0.0387632856055303
 0.300439588370929 0.109080634939982 -0.19283685417245
 -0.330843830075641 0.109080634939982 -0.211499368063723
 0.368450735951731 -0.132928811195052 0.0593658633272891
 -0.0579999534541913 0.130085358007499 0.241002243925166
 0.123972585742428 -0.132928811195052 -0.510363702953447
 -0.237813812552225 0.130085358007499 -0.451108537761653
 -0.104065420367215 -0.111924088127535 -0.410218917821738
 0.197777636642012 -0.114276617111097 0.0634492053208547
 -0.328104993416434 0.109080634939982 -0.138077045515926
 -0.289841673361981 0.130085358007499 -0.0213488532228123
 -0.205179299516822 0.109080634939982 0.0868245897896717
 -0.393556933929916 -0.111924088127535 -0.293095220230828
 0.0217262914399391 -0.111924088127535 0.831803647349219
 -0.430593636865658 0.0127688535735739 0.168817730527912
 0.0546659918418746 0.130085358007499 -0.508289871834418
 0.377666917458932 0.130085358007499 -0.2535619109868
 0.308566613203549 -0.00335677929832968 -0.11270637541755
 0.354042538235969 0.130085358007499 0.0539555056586478
 0.28447973379232 -0.114276617111097 -0.0391928584573616
 0.117797423543277 -0.0272173402955123 -0.170095215228859
 0.0916441984491142 0.130085358007499 0.619582969425061
 -0.280092121411175 -0.132928811195052 -0.459447137080453
 -0.236390267785842 -0.111924088127535 -0.257689701311545
 0.301021686574953 -0.132928811195052 -0.120734555099757
 -0.237419493011064 0.0190768098019677 0.81288824055916
 -0.100337505629684 -0.132928811195052 0.281814610695455
 -0.258924902620835 -0.132928811195052 -0.482749966951394
 0.248517319092819 -0.111924088127535 0.151398878728877
 -0.103452472892878 0.130085358007499 0.680860130487005
 -0.0766975759543456 -0.111924088127535 0.353897602132719
 0.0928160155015986 0.109080634939982 0.153633562233179
 0.293619584572776 0.109080634939982 -0.370365407053889
 0.0693965562347004 0.00896306799342668 0.216249967376983
 0.0754037489305244 0.130085358007499 -0.377198325801405
 0.04382237821947 0.130085358007499 0.680449607142276
 0.111168393482207 0.130085358007499 0.570795484526916
 -0.129018381703337 -0.111924088127535 0.46875577514267
 -0.258228864284735 -0.111924088127535 -0.308370896412774
 0.0943339285917358 -0.111924088127535 -0.393401594922633
 0.347925413824901 -0.132928811195052 0.0691324919860993
 -0.0959128568526256 -0.0174201377969235 -0.657579372381822
 -0.243522862774248 0.130085358007499 -0.421758216077535
 -0.228812046014212 -0.111924088127535 -0.243483448256696
 -0.237419493011064 0.00444865540699725 0.834508909998178
 -0.0438899138649653 0.130085358007499 0.591090655364973
 0.292634221238545 -0.111924088127535 -0.0738649089127408
 -0.226908463065592 -0.111924088127535 -0.324767999596235
 -0.0927206862407805 -0.00393648321791179 1.08369574689532
 0.207594331990997 -0.132928811195052 -0.232457701836941
 0.128966069543569 0.109080634939982 -0.424596137654751
 -0.325265427001084 -0.0070862819241732 -0.117040452839003
 -0.252010980586572 -0.111924088127535 -0.122216846116038
 0.294731405225131 0.109080634939982 -0.233649201669946
 0.363434578884578 0.130085358007499 -0.229902819891355
 0.232904801553927 -0.111924088127535 -0.136486792847392
 0.272672961364969 0.109080634939982 -0.241020025817233
 0.0377171050428612 -0.111924088127535 0.74731626420844
 -0.1786207256188 -0.111924088127535 -0.416888325400497
 0.115440325118688 -0.132928811195052 0.22702165311802
 0.0961628949841742 -0.132928811195052 0.165467988024161
 0.102757302417057 -0.111924088127535 0.0913536389297315
 0.264742026138687 -0.111924088127535 0.0974323701995554
 -0.0584324449765343 -0.111924088127535 0.139524240485761
 -0.328544181706124 -0.111924088127535 0.132527034359523
 0.135768432027333 -0.111924088127535 -0.399842132573135
 -0.286389190569636 -0.111924088127535 -0.28577402293648
 0.117621208438143 -0.00824765005160827 0.376043119177689
 0.065223669029405 0.130085358007499 0.812996280971334
 0.010229684145492 -0.132928811195052 0.187571877075586
 0.349521525271792 -0.132928811195052 0.0461644016181647
 0.273727247987881 0.130085358007499 -0.121650358703742
 -0.271389957108089 0.109080634939982 -0.0125523673014736
 -0.20275802079954 -0.132928811195052 -0.431234458921547
 0.312617168156262 0.130085358007499 -0.274735532500699
 0.328059932164213 0.0239532381128071 -0.00385458379391616
 0.0557203462035487 -0.111924088127535 0.881421689177686
 0.106246961288667 -0.132928811195052 0.111253022353213
 0.0694418540444666 -0.030201858078633 -0.241928614951079
 0.189800950857653 -0.132928811195052 -0.288518085951696
 -0.100477259486616 -0.111924088127535 -0.41851702070871
 -0.299005644089365 -0.132928811195052 -0.192586092199605
 -0.502365056996165 0.0268270954630252 0.0297367670446929
 0.236057862620112 -0.111924088127535 -0.0240977637720063
 0.104584755773293 -0.111924088127535 -0.39552587249098
 -0.105692709520321 -0.111924088127535 0.514561455593539
 -0.0154953003572402 -0.00914540365046094 -0.004958232232832
 -0.419331740758648 0.0280766679189736 0.183768527858538
 0.0922184211714231 -0.132928811195052 0.243571745863849
 0.0528947775440028 0.130085358007499 0.427470193466095
 0.111051850276826 -0.111924088127535 0.0860837330891385
 0.251571154349839 0.109080634939982 0.0940688865920488
 -0.434157571388777 0.0273738575390972 0.163813106301458
 -0.237419493011064 -0.00593078844074797 0.306451462042589
 0.152994366822086 -0.111924088127535 -0.34730515523679
 0.327218152812757 -0.132928811195052 0.085369726842234
 0.260648806929513 0.00291919646436619 0.317215693796328
 0.253451620354118 0.00776064034461727 -0.364209171861825
 -0.100323570988798 0.109080634939982 -0.393524000963271
 -0.0737568198044448 0.109080634939982 0.153839783809673
 0.00208952327337559 -0.132928811195052 0.246235056714607
 0.119544590574049 0.0150152276755543 -0.110732573354968
 -0.232829204288586 -0.111924088127535 -0.476012498445002
 0.147243174943387 0.00921573346729761 0.265232689388626
 -0.181719759399851 -0.111924088127535 0.244860623681278
 -0.201068235728674 0.109080634939982 -0.00308705268015798
 -0.0751471758792053 0.130085358007499 0.854685465603834
 0.180023772079741 -0.111924088127535 0.0654859395797145
 -0.117457981936044 -0.00745223547343763 -0.060940800748771
 -0.171766306383595 -0.132928811195052 0.028991234043505
 0.208987927308207 -0.132928811195052 -0.249100967831348
 -0.360127313188129 -0.111924088127535 -0.350971124953525
 -0.165279333478394 -0.0085778073019985 -0.632781513332908
 -0.374160036650558 0.109080634939982 -0.13867266791685
 -0.143852623658971 -0.111924088127535 -0.431677114628056
 0.0483460368107011 0.130085358007499 -0.429870454665594
 0.0212371399133719 0.130085358007499 0.951864909843137
 -0.230672081628176 0.0276332274561567 0.926348370075954
 0.0452937429288801 0.130085358007499 0.578681923330968
 0.0119225315862892 -0.111924088127535 0.788118035545828
 -0.229921432364622 -0.132928811195052 0.223175985151185
 -0.296043606586731 -0.0231881216320504 0.307158608651467
 -0.326422595963662 -0.132928811195052 -0.372601713145564
 -0.151229976563537 -0.132928811195052 -0.321722949191331
 0.306189182582133 -0.114276617111097 -0.109694835852481
 0.0161060801127319 -0.132928811195052 -0.525383264237044
 -0.405785505869457 0.109080634939982 -0.298669456226659
 -0.135847591112427 0.130085358007499 0.512588652984054
 0.0142288421882099 -0.132928811195052 0.259511429231578
 0.179213808891061 -0.114276617111097 0.135970253755297
 0.270354459414365 0.109080634939982 -0.00769356990064203
 0.199568397875936 -0.111924088127535 -0.301752016680003
 -0.341113494510712 0.0132354563684619 0.00322614124972403
 -0.0880242146268151 0.00189288350848891 -0.0307078373522409
 0.322390717209777 -0.111924088127535 -0.000985137299146581
 -0.237419493011064 0.00951101198961879 0.675486808938423
 0.242866983535489 -0.114276617111097 0.0334784223704658
 -0.326175837393494 0.130085358007499 0.137745305172645
 0.35785313009411 0.109080634939982 -0.15538965718728
 0.074847446919992 -0.114276617111097 0.16453394098699
 -0.412634427934056 -0.111924088127535 -0.098326715104956
 0.293992950402775 -0.111924088127535 0.117452762385764
 0.1044824600752 -0.111924088127535 0.414325058699799
 -0.288211682102002 -0.132928811195052 -0.439831334337536
 0.05157013209064 -0.111924088127535 -0.428238691144063
 0.2157380409013 -0.111924088127535 -0.206258752715748
 -0.136138813402732 0.00652403424411375 -0.0999654736069215
 -0.406561896519409 0.109080634939982 -0.0341315730766152
 0.021101977610119 -0.132928811195052 -0.484363852481827
 0.218222051615499 0.0178550031739028 0.449482287561767
 -0.186976261561233 -0.132928811195052 -0.518811220342331
 0.0318402658685742 0.00685906527090458 -0.654964765428702
 0.298584044806031 0.109080634939982 -0.390471161677609
 -0.107995778830448 -0.00150797014892723 -0.224161951555628
 -0.0730444610347819 0.109080634939982 0.192721758534778
 0.072977414634754 0.130085358007499 0.636591519832818
 -0.218253178048764 -0.0121404280816686 -0.342986688474769
 0.240487301962216 0.130085358007499 0.0867974723302367
 0.065856085626595 -0.0028276964608664 -0.0285750699361951
 -0.085480716264476 -0.111924088127535 0.913992117067086
 -0.276545821186847 -0.132928811195052 0.0331397603475704
 -0.242831457925119 -0.132928811195052 -0.369646895676092
 0.335658403850838 -0.132928811195052 -0.0519930445042301
 0.0269325574610141 -0.111924088127535 0.373476080949285
 -0.148990973200457 -0.00649921031865378 -0.645954647755192
 -0.17208199005209 0.130085358007499 -0.311944527745881
 -0.148752932833157 0.109080634939982 -0.465212440717623
 -0.497932873258652 -0.00332655044078986 -0.315413519412877
 0.221853724316043 0.109080634939982 -0.472827495772662
 -0.105101891837265 -0.111924088127535 0.0983618601503597
 0.00529479989269545 0.109080634939982 -0.483842546479343
 0.202992329003456 -0.111924088127535 0.195736712782712
 -0.252749808771758 -0.111924088127535 0.0872215807655916
 0.287295680922896 0.109080634939982 -0.0489990557181682
 -0.0529391881972494 0.00476089839710479 0.389809230013003
 0.0130031214871353 0.0274573538160041 -0.266331230075797
 0.193511047735281 -0.111924088127535 0.0516083636805538
 0.140573873030144 -0.111924088127535 -0.477715589585109
 -0.34873429600284 -0.111924088127535 -0.094773300454646
 0.268029706567945 -0.0241338196936239 -0.585821125216915
 -0.403569261570491 0.109080634939982 -0.283278919922218
 -0.323973888600501 -0.111924088127535 -0.388925165221939
 -0.115913452911977 0.130085358007499 0.278732423756121
 0.311001265151575 0.109080634939982 -0.0109218234466505
 -0.374841715914674 -0.111924088127535 -0.00649328076777749
 0.246237783505423 0.0178456197410133 0.0296406349856598
 0.184582454699498 0.109080634939982 -0.455568808797959
 -0.0791769139964816 -0.132928811195052 0.270006451565036
 0.40425691127871 -0.132928811195052 -0.0872467695061754
 0.262742349924926 -0.114276617111097 -0.139559399288947
 0.270321722479226 0.00782907347469279 -0.584399327092561
 -0.237419493011064 0.00963229457712328 0.831489366241701
 -0.107707612018658 0.130085358007499 0.756983099637968
 -0.175555919875032 0.00884242346473319 0.356315741462338
 -0.332450287606007 0.109080634939982 -0.326591987887713
 -0.311695191582851 0.109080634939982 -0.185475641262244
 0.214446072949067 -0.132928811195052 -0.447155786779421
 0.0947624775869634 0.109080634939982 -0.438140312149006
 0.0296132092137927 -0.132928811195052 -0.518018036982461
 -0.00927283090700611 -0.132928811195052 -0.512622391434035
 -0.519775116875139 -0.0282877165321259 -0.273138366232341
 0.152371831737059 -0.132928811195052 0.22489508320451
 -0.328291834766367 0.109080634939982 0.0846193165209058
 -0.300845766094214 -0.111924088127535 -0.275133731696051
 -0.29618773598726 -0.132928811195052 -0.344127736332649
 0.0160853021480535 0.109080634939982 -0.556038122155453
 0.110703511225725 0.130085358007499 0.814493993795185
 0.38485515300514 0.00977921161895693 -0.475461989054595
 0.106323922388786 0.109080634939982 -0.529374666824267
 -0.0833618583965114 0.0238761080272986 -0.651366847503564
 -0.0960864518271885 -0.111924088127535 0.285633721103486
 -0.00538848605116204 0.0194258408075571 -0.656591999808703
 0.263966748410651 0.130085358007499 -0.384616214693985
 0.169134379749312 0.109080634939982 -0.45308847753221
 0.0838910081903528 0.130085358007499 0.305387294846121
 -0.076882552055082 -0.111924088127535 0.620348510005302
 0.193729771823796 -0.132928811195052 0.021630668047665
 -0.154256974858251 -0.111924088127535 0.0804043911996943
 0.11687394828244 -0.111924088127535 0.383374471877591
 -0.133713887007874 0.130085358007499 0.0924992420836952
 0.164367577789417 0.109080634939982 0.0231207056408127
 -0.129065256312795 0.130085358007499 0.56635765684353
 -0.0801898370191587 0.130085358007499 0.903784929853932
 -0.229904376958886 0.109080634939982 0.193632760525884
 -0.39672444650104 0.109080634939982 -0.250219042290851
 0.0672376425958079 -0.111924088127535 0.841549071018325
 -0.107586429937973 0.130085358007499 0.235047747281142
 -0.164746199188676 -0.132928811195052 0.102167600394079
 0.0602009906896696 0.130085358007499 0.81647157192024
 0.290758021374315 0.109080634939982 -0.305566015745831
 0.21570318907676 -0.0114892868478918 0.904648859047664
 0.0634419278095272 0.00910390833009578 -0.651445602414662
 0.2282336716862 -0.111924088127535 0.0238123694082327
 -0.0475721148642212 -0.132928811195052 -0.525273808255783
 0.263149182748678 -0.132928811195052 -0.379426138226643
 0.239899138777657 0.130085358007499 -0.0817207671961532
 -0.237002314129535 -0.132928811195052 -0.0468840800179241
 0.11792689204428 -0.000325584772548808 -0.169346614839033
 0.0508999137061505 0.130085358007499 0.648583310676312
 0.277117517084572 0.088075911872465 -0.144029684239175
 0.127177024436947 0.130085358007499 -0.333396819739081
 -0.100931778428201 0.109080634939982 -0.492675860222718
 0.175720061884195 -0.132928811195052 -0.377093459137293
 -0.0929645571639377 0.130085358007499 0.126920656792906
 -0.421039964780491 0.130085358007499 -0.11413653623362
 0.107876306504776 0.130085358007499 0.900135503660831
 0.244914942442717 0.109080634939982 -0.293236555174451
 -0.0335716580125809 -0.0139044261081466 -0.266030527548175
 0.0910396241384834 0.130085358007499 -0.353225576141922
 -0.222103493694289 -0.132928811195052 0.0174010214959341
 0.238372246955965 0.130085358007499 -0.29965046909406
 -0.14543833041139 0.109080634939982 0.233371145966569
 -0.0877966257850613 -0.111924088127535 -0.439214295813037
 0.243540263962095 0.109080634939982 0.0385852546853423
 0.0369902717219808 -0.111924088127535 0.536524633129943
 0.518529303347878 -0.00280270661749186 -0.140264517386657
 -0.0411171507582291 -0.00542464581558086 -0.00859253747860649
 0.218222051615499 0.00994886003948378 0.542236295225202
 0.0911321068406789 -0.111924088127535 0.807459188355777
 -0.167612570151319 0.130085358007499 -0.31061117497579
 0.264448693416191 -0.132928811195052 -0.00304897441233347
 -0.0367327044548609 0.130085358007499 0.325259046796156
 0.0731739770232512 -0.111924088127535 0.195147646472164
 -0.043941843662915 0.00711540573870668 0.390480313021615
 0.0303058368628486 -0.111924088127535 0.45553220763862
 -0.232526210221147 0.130085358007499 -0.252146131040857
 0.134571859388399 -0.114276617111097 0.175948389319016
 -0.167068898616913 -0.111924088127535 0.0973738486999362
 -0.397718353627501 -0.132928811195052 -0.288771594427644
 -0.158622690475358 0.130085358007499 -0.491757910828472
 -0.399181856835729 -0.00849775395981554 0.207985331195634
 0.223538036426239 -0.111924088127535 -0.257251697610345
 0.279117700163272 0.130085358007499 -0.331656283043306
 -0.220331813047381 0.109080634939982 0.144632623924667
 -0.30993536104519 -0.111924088127535 0.147190166060355
 0.107857069164411 0.00126438214033892 -0.196012657285324
 -0.128505971828222 -0.111924088127535 -0.428779847511602
 -0.0963007141651977 -0.111924088127535 0.777147970318657
 0.0487968824298746 0.130085358007499 -0.415240760345007
 -0.0539603081864495 -0.0142392927184046 -0.0125291133301639
 0.501830734907912 5.36881869833272e-05 -0.0420328016753575
 -0.0761932420614533 0.130085358007499 0.0992279187523369
 -0.337536324828439 -0.132928811195052 -0.234716114821112
 0.327535444833709 0.109080634939982 -0.247221200254837
 -0.131177114693731 0.0101941242357165 -0.187195205300332
 0.372117549155437 -0.132928811195052 -0.219197216014599
 -0.162613266931808 0.130085358007499 -0.34510188259585
 0.287271297080865 -0.111924088127535 0.0327422259786368
 0.10354464572292 -0.111924088127535 0.543854914794399
 0.0508720597483613 0.0283805792378597 -0.653078147254601
 -0.375958638032969 0.109080634939982 -0.16068299900775
 -0.212731599132052 -0.111924088127535 -0.329088392750862
 0.101218738619828 0.109080634939982 -0.528064672637861
 0.378221701921235 0.130085358007499 -0.123769451482665
 0.264931506033155 0.109080634939982 -0.323875666153907
 0.518463820200084 -0.0319921185586831 -0.144776740211846
 -0.434229980782976 0.109080634939982 -0.15531741364311
 0.0318658609841752 0.0326608395613175 0.831064315461552
 -0.262652762409334 -0.132928811195052 0.105834771955997
 0.28982458895546 0.109080634939982 -0.403652084695459
 0.110340210704226 0.130085358007499 0.260913967461695
 0.241853218452921 0.130085358007499 -0.184781919352716
 -0.135113229760778 -0.132928811195052 0.0706403787416115
 -0.361964741774264 0.130085358007499 -0.231792030486257
 0.484320366043368 0.00827101820565113 0.0263073765389919
 -0.377240869048714 0.109080634939982 -0.267450528001832
 -0.320527292231598 -0.000894069322067282 0.290359106123705
 -0.243257150875015 0.130085358007499 0.144941628410703
 0.254088763212338 -0.132928811195052 -0.025757094515695
 0.0576051755207257 0.130085358007499 0.886051258115048
 0.167184774089957 0.109080634939982 -0.357893756521918
 0.0308847398912713 0.130085358007499 0.795112168158779
 -0.112290021558741 0.016879991237045 -0.219048216827151
 -0.230422813812681 -0.00497523526237055 0.334325893386513
 0.094534295594497 -0.00126676341402267 -0.0558383541245766
 0.0121249581534068 0.0116969532065081 -0.26645224135765
 0.24197387894334 0.019161185593922 0.318619489795418
 0.267882242395555 0.109080634939982 -0.0467207421554363
 0.162318015850149 -0.00261189061810452 -0.635914745964179
 -0.330465535718702 0.109080634939982 -0.111668307351588
 -0.0877122713692051 0.130085358007499 0.245527628988367
 0.271798218059166 -0.114276617111097 -0.173821245745055
 0.024523409748038 0.109080634939982 0.180575403835608
 -0.160512947976538 0.130085358007499 0.113915775952808
 0.380415387730881 -0.111924088127535 -0.230845917298048
 0.300013356923231 0.109080634939982 -0.228761791446756
 0.0935973806164487 0.130085358007499 0.389068704808443
 -0.407401613799891 0.109080634939982 -0.117401798787083
 -0.00182001126586948 0.109080634939982 0.260440072751566
 0.405737129135971 -0.111924088127535 -0.197801679314206
 0.15121435548662 -0.111924088127535 -0.326517627008567
 -0.345838515768668 -0.132928811195052 0.0619987272500211
 0.367438212933989 0.130085358007499 -0.0629950609738174
 -0.366596599482743 0.0176540093458749 0.241665488753731
 0.368987218120226 -0.111924088127535 0.0388081452665153
 0.218222051615499 0.0238539217853371 0.739209792349153
 -0.528418536960131 0.0207694722890915 -0.172656885726164
 -0.28443252075687 0.109080634939982 0.183102172586868
 -0.320736112265219 -0.111924088127535 0.032370358158339
 -0.256058235775984 0.109080634939982 0.180850763629404
 0.348033777823303 0.109080634939982 -0.0573226562477239
 0.113630877197028 -0.111924088127535 0.664531717649427
 0.0186814952362044 -0.111924088127535 0.364782087252616
 0.269055061994204 0.109080634939982 -0.456102243263915
 -0.243576371965886 -0.132928811195052 -0.391309047850867
 -0.259874864310428 -0.132928811195052 -0.452485800767167
 -0.309344967737687 -0.132928811195052 0.00601813012026046
 0.136055143218165 -0.132928811195052 0.190211001817119
 0.398727640570088 -0.132928811195052 -0.150256172817354
 -0.121410490420338 -0.132928811195052 0.135399743640153
 -0.173143948205786 0.109080634939982 0.0614642180576762
 -0.221657096036493 0.109080634939982 0.0499764266865796
 0.29255551481672 -0.132928811195052 0.0169878905916182
 0.0971987061274117 0.00878160892714714 -0.0594174723592938
 -0.259116461076391 -0.00831677585526591 0.328936022890237
 0.0414630756996293 0.130085358007499 0.632978174346007
 -0.0189053082892778 -0.132928811195052 -0.528221923152025
 0.30820552581206 0.130085358007499 -0.107214193194739
 -0.0781154746702702 0.130085358007499 -0.391748003222642
 -0.149870201521806 -0.111924088127535 -0.501365216030342
 -0.31846527513534 -0.00645287107392111 -0.564957441661753
 0.0215311573769657 0.109080634939982 0.249605852743586
 -0.307392896040257 0.109080634939982 0.12201419170489
 0.144684423304472 0.0286410327554444 -0.633224998421297
 0.105478028939837 0.109080634939982 -0.522066169819265
 0.123456910293176 -0.111924088127535 0.206096794948102
 0.175370426184471 0.109080634939982 -0.288721928578139
 0.277751044434266 -0.114276617111097 -0.111713505591445
 -0.0964149054961248 0.130085358007499 0.468060969616644
 -0.38910860986964 -0.111924088127535 -0.0148213404020758
 -0.219998429148831 -0.111924088127535 0.170618280286772
 -0.103166121900897 0.130085358007499 0.246813942685392
 -0.373513781516883 -0.111924088127535 -0.223634792726744
 0.106947396616627 0.130085358007499 0.678248438151539
 -0.133206513906934 -0.0142384339795108 -0.182047571333821
 0.219021066175209 0.130085358007499 0.0943041972077567
 0.0831924991561616 -0.111924088127535 0.779533618304479
 0.231973537906363 0.109080634939982 0.0820246033384368
 0.0577832666786427 -0.111924088127535 0.185327261507671
 -0.286057752893556 -0.111924088127535 -0.129508459879777
 0.0742954747550479 -0.132928811195052 0.222495739086555
 -0.026766616563754 0.130085358007499 0.821959121978655
 -0.231435594970634 -0.132928811195052 -0.476232927039117
 -0.126671287995751 -0.0142254493211604 -0.0761725171171095
 -0.390125449382576 0.109080634939982 0.024723361809409
 0.251959899200463 -0.111924088127535 0.126005975999135
 -0.148194031333703 -0.132928811195052 0.237788157388684
 0.318945284871196 0.109080634939982 -0.365597664426416
 -0.326717810642618 0.109080634939982 -0.367480207720126
 -0.389927244357613 -0.111924088127535 0.0249671343424182
 0.34810943932967 -0.132928811195052 0.0581534920781596
 0.122049041320059 0.00481409836823473 -0.132233688419819
 0.237996829243475 0.130085358007499 -0.13411595566496
 -0.255348226955564 -0.0016710093308637 -0.594905550709476
 0.0572741773589715 -0.132928811195052 0.200093835359276
 0.0689623687988317 0.109080634939982 0.130913058033367
 0.161754634629601 -0.132928811195052 -0.412306871685126
 -0.177573618798069 -0.132928811195052 0.108278227371621
 0.340118994691532 0.109080634939982 -0.286139355924308
 -0.193579750242677 -0.111924088127535 0.0047827667414059
 -0.0642179348980968 0.109080634939982 -0.461113515077967
 -0.393775133158044 0.130085358007499 -0.250229207728497
 0.0297179246816827 -0.111924088127535 0.923377237505545
 -0.169543184685121 0.109080634939982 -0.419042152109709
 0.0332573318358788 0.130085358007499 0.139435168693761
 -0.0777026169350317 -0.00965383149366047 -0.0238382984443531
 0.113217340664371 0.0184089729364086 -0.0890510214030317
 0.0475631750086748 0.130085358007499 0.741276478301322
 -0.292445758211807 0.0265391430387447 0.0384168865399675
 -0.528339456784601 0.0278950537696917 -0.0994790432791202
 0.247735903929946 0.130085358007499 -0.117221080983521
 0.378334295153758 0.130085358007499 -0.0335046960901522
 -0.395977138463532 0.109080634939982 -0.278548145587461
 -0.309610137870623 0.109080634939982 -0.387871857075745
 0.326630536811891 0.0165975792449875 -0.533304742620393
 0.362466616707134 -0.132928811195052 -0.304770930066802
 -0.232576939476965 0.109080634939982 0.209474128179883
 -0.006332299422012 -0.132928811195052 -0.513674982321318
 0.00328166632562041 0.130085358007499 0.690875450318337
 -0.309125824501157 -0.111924088127535 0.108034283059369
 0.480542217626689 -0.000223259958845843 0.0372959199269153
 0.0396669916975664 0.00252038840519803 -0.0143718069726456
 0.0659565452145077 0.00578279910955367 -0.0286119076060843
 -0.223404728952099 0.109080634939982 -0.255428862907493
 0.361184614842079 -0.132928811195052 -0.28041092484181
 -0.400288059285906 0.130085358007499 -0.164958300930173
 -0.30643180689932 0.130085358007499 -0.378308520791231
 0.218222051615499 -0.00774611574376893 0.399396400513673
 -0.260257847166867 0.130085358007499 -0.403991502356324
 0.196684952559766 -0.111924088127535 0.0503784702854217
 -0.106677509827491 -0.132928811195052 0.192498012523751
 -0.0545850067726562 0.0236871022421665 -0.0127677679514662
 -0.434665416971093 0.109080634939982 -0.171187296226635
 -0.119832116051807 -0.111924088127535 -0.434586739790232
 0.231955055598196 -0.111924088127535 -0.0353536097688898
 0.0308398429521598 -0.111924088127535 0.0980891733085525
 -0.0685237280639825 0.0178460308231544 -0.0187845710946589
 0.267308557370538 -0.111924088127535 0.0728814220019113
 0.501205376116974 0.00707759412777843 -0.00230150371944127
 -0.115487025908549 -0.111924088127535 0.601163344027266
 0.0122272100750255 -0.111924088127535 0.750156184503012
 -0.33469048376893 0.109080634939982 -0.212376213518271
 0.439747104450307 -0.0117755744722276 -0.414028795091899
 0.224532265659923 0.130085358007499 -0.0984311944122961
 0.00194504220673289 0.130085358007499 0.396345447618261
 -0.0582600063408716 -0.111924088127535 0.268374473445834
 0.391405558880338 -0.132928811195052 0.010721512069183
 0.320113438994326 0.109080634939982 -0.146579273260251
 0.00280333746111886 0.130085358007499 -0.372188470379621
 0.233887402319839 -0.111924088127535 -0.35331632799674
 -0.067134167254689 -0.111924088127535 -0.540644605803236
 0.0740108975527969 0.130085358007499 0.245349228636992
 0.260712803352586 -0.114276617111097 -0.113786641922587
 0.0745957886959074 0.130085358007499 -0.489964367333784
 -0.350582058936051 0.0266410434219686 -0.10881457876313
 -0.128677637866119 -0.132928811195052 -0.398632765211749
 -0.266117353796399 0.109080634939982 -0.343308231533422
 -0.257209863747086 -0.111924088127535 -0.147652236311802
 0.00786762133006772 -0.132928811195052 0.178251735211022
 -0.0935568445362257 -0.0250725974777838 -0.238035652068774
 0.285647534210345 -0.111924088127535 0.000495669984447097
 0.218222051615499 0.0132234721005743 0.813123982003751
 0.250196333527967 0.109080634939982 -0.215339876815714
 0.29543311502588 0.130085358007499 -0.179731338087392
 -0.16543141205343 -0.132928811195052 0.185697854034642
 0.113099414849935 -0.0105464345629174 -0.0886525610435542
 -0.151636608068815 0.109080634939982 0.125744306600137
 0.326419037389537 0.130085358007499 -0.243261377886264
 0.0409624976624498 -0.111924088127535 0.866912218078719
 -0.265033852332927 -0.111924088127535 0.121778901507271
 -0.00538134142179934 0.130085358007499 0.444440284026852
 -0.1191933404189 -0.111924088127535 0.484268847229819
 -0.237419493011064 0.0215391113840405 0.475240875889349
 -0.21787411906678 0.109080634939982 -0.401801239170285
 0.000152029903737851 0.130085358007499 0.443770149825514
 0.192650956785232 -0.111924088127535 0.0174382001961996
 0.184300445039729 0.109080634939982 -0.358553855262832
 -0.36474527852326 -0.132928811195052 -0.239340340538944
 0.225165984885739 -0.114276617111097 0.0100022768491726
 0.0143346341776228 0.109080634939982 0.253564483311869
 -0.335839515377862 0.109080634939982 0.132524068812227
 0.513198414002034 -0.00942770795265191 -0.211478665817455
 -0.103311940034162 -0.111924088127535 0.424312365334184
 -0.261033966052432 0.109080634939982 -0.172071499831629
 0.0315805458473602 0.109080634939982 -0.505655444502999
 -0.200107389912316 0.109080634939982 0.111036915377325
 -0.046807165754508 0.130085358007499 0.829076712295332
 0.2196827886874 -0.111924088127535 0.10256359945528
 0.246827384484232 0.109080634939982 0.0225341590188047
 -0.282992007706566 0.130085358007499 -0.39207359664004
 0.357644962664583 -0.132928811195052 -0.009808466557811
 0.319119816304261 0.109080634939982 -0.232053615758635
 0.0848832920119421 -0.111924088127535 0.529401552326425
 -0.181512273359127 0.130085358007499 -0.343872479324643
 -0.298134851626867 -0.132928811195052 -0.282664430747553
 -0.511602548398647 -0.000171388226646446 -0.000625033801557848
 0.279649014217641 -0.132928811195052 -0.0151150038699402
 -0.0589248420882072 0.130085358007499 0.58713383519435
 0.307078052339877 -0.111924088127535 -0.227847279311
 0.0207283880270407 -0.111924088127535 0.205837668950148
 0.234993725669551 0.088075911872465 0.0135284596457771
 0.0440206393439739 0.130085358007499 -0.470139880894109
 -0.103210907667171 0.130085358007499 0.505829605977995
 0.0634565659445811 -0.111924088127535 0.756597816665347
 0.19534096578455 -0.132928811195052 -0.26567069737238
 0.133308700545878 -0.132928811195052 -0.425314902880274
 0.299991359745012 -0.111924088127535 -0.0879555592068117
 -0.002841264563899 0.130085358007499 0.949213006829615
 -0.2309501556343 -0.111924088127535 -0.370923033806382
 0.150337263079029 -0.132928811195052 0.0653652095950482
 -0.135187876680925 -0.111924088127535 -0.342975233831301
 0.327121077898924 -0.132928811195052 -0.105238705455799
 0.027830592030063 0.130085358007499 0.0949799818892078
 0.275890540378991 0.00461644454606209 0.0298093391018566
 0.3595217444275 -0.132928811195052 -0.0545792157767641
 0.285079970448434 -0.132928811195052 -0.29158878644896
 -0.277184178004274 -0.0318705244485238 0.318778095624626
 0.0350371423540473 0.130085358007499 -0.524519970810853
 -0.326462239517916 -0.132928811195052 0.0631097709668638
 -0.012131407905597 0.130085358007499 -0.515967337814538
 -0.00922314322955547 -0.111924088127535 0.272418377494676
 0.246559382755908 -0.132928811195052 -0.364189918587072
 -0.241116677001682 -0.111924088127535 -0.106919089557824
 0.0966986794811146 -0.132928811195052 -0.43112397719905
 0.307040897330876 0.0266408484243891 -0.116724336635334
 -0.0570752811901756 0.000789953600607466 -0.0136866727125013
 0.0816387536342723 0.130085358007499 0.397752933591966
 0.0304235250789046 0.130085358007499 -0.462065549597779
 -0.182258932003391 -0.111924088127535 0.181067880703421
 0.334681247799472 0.130085358007499 -0.105258181057426
 0.0842897641480387 0.0274050737367861 -0.0441652905726776
 -0.33174300329879 0.130085358007499 -0.177368541895916
 0.365617971931745 0.109080634939982 -0.334441860160594
 0.255709977898416 -0.132928811195052 -0.0371350563413385
 -0.160229799581511 0.109080634939982 -0.44371415245711
 -0.0153613708528845 -0.00996337041986803 0.228437148062276
 -0.237419493011064 0.0245898649029914 0.837564425083202
 -0.26347990144651 -0.111924088127535 0.0754139041257068
 -0.0148074403280007 0.130085358007499 0.824561052987485
 -0.0579864616906303 -0.132928811195052 0.108441949285766
 0.0195025157655545 0.0134428738542965 -0.265021372144086
 -0.18053146810151 0.130085358007499 -0.301494087415422
 0.00525845175564711 0.130085358007499 0.83208994185401
 -0.0267131584440646 0.130085358007499 0.766652730616356
 -0.274606802412412 -0.111924088127535 -0.177190131631966
 0.218222051615499 0.00675774946625616 0.315456757287696
 -0.312432862864213 0.130085358007499 0.0413033950531817
 0.0974611791353246 -0.111924088127535 0.335921983399563
 -0.253030880124819 -0.132928811195052 -0.127266861154961
 -0.380937948852766 -0.111924088127535 -0.213506799112215
 -0.237419493011064 0.00667948589236135 0.41064307035442
 -0.10523524945223 -0.132928811195052 -0.380816328909506
 0.275375063389601 -0.132928811195052 -0.31026392560819
 0.29890169807183 -0.132928811195052 -0.265102322350761
 -0.0752668488666707 -0.111924088127535 0.721932384979235
 -0.234507528697924 -0.111924088127535 -0.203486182127734
 0.228989751390595 -0.111924088127535 -0.423984807909935
 -0.195812851781788 -0.132928811195052 0.0328641704749398
 -0.0901589243562622 -0.111924088127535 0.374781346453474
 -0.0418548675482795 0.130085358007499 0.253867203874628
 -0.38118820664552 0.109080634939982 0.015190567164697
 -0.10988762571258 0.0167284017806923 -0.221857570126091
 0.218222051615499 0.0143981839556718 0.360748260333945
 0.0583555416496904 -0.111924088127535 0.813951173162359
 -0.373437861028031 0.109080634939982 -0.0789054082748655
 0.0372305569323315 0.130085358007499 0.0961107936929172
 -0.400883161406865 0.130085358007499 -0.00154898193555739
 0.276716635683602 -0.114276617111097 -0.00243017441948624
 0.174281890002933 0.109080634939982 0.101576427785145
 0.114943634186502 0.088075911872465 0.156144287610951
 0.18746193221079 0.109080634939982 0.0582075485616299
 0.384779851685319 0.109080634939982 0.0236234731477553
 0.243502731761441 0.109080634939982 -0.119171853579085
 0.295653261030942 0.130085358007499 0.117816038923037
 -0.065586146157899 -0.111924088127535 -0.461445262212127
 0.300828731657057 -0.114276617111097 -0.188169371555983
 -0.118571640114368 0.130085358007499 0.799473901557528
 -0.035182505123481 0.109080634939982 0.264262599237473
 0.093035223978314 0.024425457059434 -0.219132467343964
 -0.059854444810058 -0.132928811195052 0.120435122671919
 0.161049500018053 0.109080634939982 -0.419940238286068
 -0.353675699644402 -0.132928811195052 -0.136393901260516
 -0.117097769713337 -0.00640721318085288 -0.212641715942898
 -0.370580208271864 -0.00723732196658482 0.248951743314598
 0.0558733495488505 0.109080634939982 -0.530708144841086
 0.286479436928587 0.109080634939982 -0.0528259942047139
 -0.155131687443719 -0.111924088127535 0.179796339432325
 0.127617905151927 0.130085358007499 0.0613399096105455
 0.083219513944096 -0.111924088127535 0.839894274863392
 0.113301376698483 -0.132928811195052 0.108615043067755
 -0.205213612794188 0.109080634939982 0.228288088706474
 0.197290631140688 0.130085358007499 0.133408536316404
 -0.0910283510971287 -0.0107331765815551 -0.0329809716702016
 -0.237419493011064 0.0189974036499654 0.602418371896349
 0.316240867116507 0.109080634939982 -0.401359242097687
 0.157392290469187 0.130085358007499 0.0522805580923267
 -0.224359531174587 0.130085358007499 -0.225778380473436
