 -0.190290910377695 0.282682627566024 0.129176925003757
 0.720685960126995 -0.178447764525602 -0.0070744738711465
 -0.282698412448478 0.297594537253915 -0.273742945082398
 0.380557514411205 -0.281378155167643 0.48676597154779
 -0.0129137040907199 0.112324209797188 -0.278777599898913
 -0.130562653268733 -0.734091867053604 0.289305738783303
 -0.150986876521191 -0.69427236287503 -0.19884680733103
 0.0772748303647855 -1.00011009848665 -0.119451581753389
 0.109566230473742 -0.80006418592293 -0.25852288376971
 0.48912452113261 -0.573066416186641 -0.429155134938518
 0.0432292572775129 0.634703430348012 0.13477400266524
 -0.288701794694008 0.203606033337104 0.000283269971284861
 0.193361089975452 0.255683213587518 -0.337961326798552
 0.506953891988194 -0.135095342281354 -0.0754836193651249
 -0.460225366754543 0.402292164340683 -0.0273944071753941
 -0.191694747890192 -0.368212759778841 0.290968233896232
 0.300375454609046 0.482728540129745 -0.180684316652042
 0.00501510124329895 -0.911488243797985 -0.289216712513364
 -0.657256463133554 0.0315324402683244 -0.0166840571361273
 0.169837456958977 -0.800065010442671 -0.306566741260451
 -0.654983825035746 0.0826608876237593 0.110378958565242
 0.297151133207311 0.479596936336153 -0.268680223250457
 0.208236868531101 0.404155659287474 0.455821859312343
 0.17872300938475 -0.393280913983828 -0.621829838798932
 -0.128768552842698 -0.209149198399156 -0.248193552300527
 0.557154851009978 -0.731968779327422 0.418225926624713
 0.438797567501384 -0.209910932147119 -0.123271429224931
 0.318120925861303 -0.0483947499910058 -0.332108824212611
 0.17845009355577 0.482728540129745 0.0995367067512798
 -0.387025690708351 -0.0183472773762484 -0.308864771489701
 0.521918661062586 -0.879811478616696 -0.00750335262140582
 0.213672055594809 -0.81655110478355 0.247209699546572
 0.0240007165512338 0.482728540129745 -0.318983466653946
 -0.268873233434458 -0.843187601130036 -0.264188725555359
 -0.210376459012045 -0.340935426872582 -0.155023994080018
 0.144231934025934 0.311921364408199 -0.275736334606545
 0.433542618705479 -0.698043639758808 -0.0507148175801739
 -0.204100697468943 -0.65791525572728 0.16876313347142
 -0.447898272990374 -0.460832746585516 -0.0785387804573782
 0.535661893605972 -0.558965452728826 -0.0887470992108058
 -0.105023171974316 0.0341572560866698 0.230600337554014
 -0.367569461852418 0.260047911415289 0.11670824545351
 0.320129076922558 0.434657517784291 0.135305268111902
 -0.351905157281838 -0.870671880129195 -0.244189294555093
 -0.340175479312456 0.34134900573784 0.140123521172968
 -0.0106282082217777 -0.340160422281239 0.608344547932121
 -0.184139603261941 -0.0354745934731821 -0.508316345330481
 0.176491815821711 0.482728540129745 0.00863768796381044
 0.287574991415943 -0.0140874478554083 -0.343958686124666
 -0.282990333836077 -0.136586802042854 -0.0514537861495097
 -0.350104408187415 -0.8441564087199 0.00943334404386948
 0.102232911672181 0.109195027324413 0.508817636882088
 0.226960854692105 0.482728540129745 0.0406769868677723
 0.679198632706347 0.138119461446794 0.0361467337759373
 -0.162086648111956 0.0979599730501366 -0.50053015608747
 -0.603144755810716 0.197716840454881 -0.00150149026984245
 -0.382450424971754 0.0112394529669718 0.15120771655278
 -0.204772488245773 -0.744479100478197 -0.176184227875081
 0.428845837943763 -0.264510849507208 0.268332652738074
 0.343863844656077 0.434657517784291 0.292707352389903
 -0.358161797203934 0.326415193982781 0.0195147135035485
 0.522985596909762 -0.134906556144261 0.440820319553915
 -0.441837504094788 -0.666491227772679 -0.0818911437320326
 -0.0439813204999976 0.242185152115361 -0.527544478423953
 0.0127524291999634 0.434657517784291 0.328323302433474
 0.358723042625501 -0.577567068289473 -0.58067512810222
 -0.161091010454994 -0.697586904872065 -0.177579291784092
 0.184786920008106 -0.413022757214874 0.561227475517189
 0.535951773833979 -0.464379785011807 0.380313043194015
 -0.14809130825475 -0.686973159516891 0.32020308372641
 -0.270289915092783 -0.381382557973757 0.491839246165937
 0.195992801195038 -0.913939190491437 0.284482399136254
 -0.245298373373906 -0.169681846118062 -0.407681874875107
 0.282645923796689 -0.80006418592293 -0.0742664093902942
 0.38459098516366 -0.767549971935025 0.455559711396498
 0.125874437714719 0.434657517784291 -0.349303198888978
 -0.175227921851885 -0.342407851411566 0.549207039111
 0.285512447289495 0.341076943215895 0.442988515171271
 0.122612592899343 0.145369141283846 0.36281634878371
 -0.460326639518356 -0.102079756007551 -0.164684989859633
 0.395110147685691 -0.420559332283457 -0.320186910557258
 -0.227642805571311 -0.0829918779149907 -0.197534698275153
 0.188224571030934 0.434657517784291 0.238829829333245
 -0.227485387089897 -0.395286685482385 0.1237662089144
 0.382899327092221 -0.690571311077781 -0.212218287792128
 -0.17048726836635 -0.839100170358494 -0.374824152668776
 -0.245377240998983 -0.615673224848694 -0.0793526621955215
 0.093719596824095 -0.138175603346562 -0.338354241456756
 0.133645173521507 0.482728540129745 0.109215138803639
 -0.0709136102389967 0.404049086915372 -0.189158658172755
 0.625996903836378 -0.863740163993938 0.149790000577918
 0.284712799604664 -0.0602965200512692 0.352321154153875
 -0.391955208360185 0.266575043800714 -0.219842575717788
 0.0609944828051379 0.634703430348012 -0.142718705334097
 0.315054958737113 -0.0846855599755633 -0.494980095623173
 0.63709154496344 -0.230144304943065 -0.172623070125524
 -0.174904585439967 -0.42650194684284 -0.224652173686623
 0.185414368873666 0.360907273242899 0.466453941430602
 -0.223645613498698 -0.328432501271202 -0.119913305631176
 0.638009904563384 -0.0336691132624345 -0.270346798586299
 0.574123772349066 -0.113601793913675 0.279586452761926
 0.116773763566311 0.216055342459881 -0.291732958360781
 0.663994497279443 -0.094130153556343 0.231489576341942
 -0.19982384280383 -0.0927053201971875 0.239480030862647
 0.111344568961731 0.282682627566024 -0.159903717298096
 0.327743103488776 -0.183482064390778 0.501711790797636
 0.670166447473904 -0.287757102106386 0.0100428425820102
 -0.108914943513131 -0.68581551327573 -0.348989004656326
 0.607229069428163 0.552115876843529 0.126512213663788
 -0.434098674710009 -0.681715691434273 -0.110878073043053
 0.100573710448067 0.416626901906027 -0.460387182195245
 -0.410449311965511 -0.518224442998845 0.222043846393084
 -0.142156218441978 -0.1330069936792 0.474779580807102
 -0.523774454802968 -0.0530499615137567 -0.057862546350124
 0.315191593485149 -0.80006418592293 -0.0290948308737814
 0.223676818328347 0.482728540129745 -0.144518179474107
 0.21252087377559 0.282682627566024 0.212978333889471
 -0.149787327889219 0.0375493672854062 0.516524138444332
 0.080805145870249 0.434657517784291 -0.224909107583728
 0.398468633930837 -0.331628118870546 0.219252728587195
 0.0454002778406142 0.634703430348012 0.315812267810093
 0.148898889510405 -0.66370367635253 0.561605602113031
 -0.291733444212675 -0.675786068476975 0.0972344886463767
 0.669469268408238 -0.303535252335973 0.0480128713477069
 0.276864056753397 0.434657517784291 0.0485712736031239
 0.249816811066688 -0.529140096259775 0.554584634408926
 -0.115739526614414 0.221394620984065 0.178408523180766
 -0.300224500445016 -0.496267440186419 0.111460863498036
 0.259019019883528 0.482728540129745 -0.238098770683724
 -0.504066996927041 0.409677427124014 0.0655117941836131
 0.440114564475681 0.464900713946467 -0.396381105380261
 -0.41206663795895 0.364144753690386 0.0830370904015051
 -0.198032159203905 -0.25750906921907 0.161637216584943
 0.102281433224644 0.482728540129745 -0.175893351207441
 0.508714269995646 0.261274957994658 -0.285427821434585
 -0.223012801054735 0.634703430348012 -0.165665497714598
 -0.439408928955953 0.160735789973191 -0.0102057745797468
 0.708714562878197 -0.171493147540663 0.113464732217538
 0.415525276108243 -0.120656872235298 0.151895698605177
 -0.22136106893105 0.634703430348012 0.0746033738461531
 0.350131946586658 -0.379726554970209 0.511413251490153
 0.397850048644841 -0.516404210290233 -0.237538943529162
 -0.312764367199215 -0.540246187950046 -0.463736383829688
 -0.222051453675594 0.1451469718478 -0.375495628262342
 0.101223714982708 0.177110593280425 0.357921209000694
 0.60463667695813 -0.0124843130293156 -0.189193838722415
 0.447524471388198 -0.385047784163324 0.262760154466022
 0.500678061678415 -0.0505218397235316 0.051872978440139
 0.485892356449062 0.255276261231821 -0.404157330907225
 0.502085111444565 0.545307364481018 0.0544024727803681
 0.545316281558213 -0.162222521584109 0.330806030746675
 0.157948968862715 -1.00011009848665 -0.209038895932524
 -0.391815959770265 0.120772711362599 -0.0268161947733725
 -0.106258128468969 -0.586342372432803 0.524760182660986
 -0.323022673844083 0.113449402310753 -0.00985835480013597
 -0.0126995164486729 0.518217595556141 -0.312359340103409
 0.00598845425454382 -0.654783835607285 0.615260329560731
 -0.225676681269302 0.36410620164599 -0.029998740019486
 0.206788130677739 -0.714834928870817 0.256614456904923
 -0.0524049568767569 -0.725538936963397 -0.0529935809354284
 -0.141098325263792 -0.80006418592293 0.16489603546464
 -0.120426717675456 -0.882989120896679 0.323010263446086
 -0.019111859442302 -0.633401395247483 0.339578603553196
 0.0306697549188499 -0.26859082006083 0.342906230676685
 0.33442490428901 0.0418904413584926 -0.227439056306663
 0.564782148149504 0.0716875464289867 -0.247831905123058
 -0.0621142563011975 0.285512444499664 -0.293390198107065
 -0.0941407060870267 0.545307364481019 0.315879557561941
 0.232322207239132 -0.797921784116362 -0.24273764766231
 0.33850982457506 0.408124081554967 -0.40693073466738
 0.308902190550737 0.282682627566024 -0.207697248853627
 0.537747413548963 -0.737364051010002 -0.436176383551792
 0.706800849664873 -0.215035752680729 0.145206099939382
 0.218638567813374 0.482728540129745 -0.160865019851024
 0.537491182800444 -0.44737357128974 0.0609052074307321
 0.694171144629886 0.0200551371101028 0.0585752444128867
 -0.22180648906526 0.634703430348012 0.0365241549798036
 0.336992972510643 0.247407472382356 0.435416668164404
 -0.111069892985503 0.442031721023145 0.401439934745918
 0.202196982587725 -0.587100719854762 -0.562546125590674
 0.0377555881390864 0.634703430348012 0.204156766118814
 0.383435226739913 0.282682627566024 -0.0438335395629885
 0.541152096185727 -0.551369821634015 -0.0571005192088115
 -0.0525466059594467 0.345571126426291 0.331536924997263
 -0.126166396243194 0.0594286374443771 0.456338500371377
 0.0706362185446826 -0.323882493621347 -0.355495761125071
 -0.44241309186318 -0.0903558287101681 -0.216402081255792
 -0.163424313270917 -0.80006418592293 -0.0374440873752536
 0.307713530921671 -1.00011009848665 0.134782555642943
 0.219080007093386 0.456481243330546 -0.502128242334673
 -0.203236070482042 -0.483708920384824 0.288146288001501
 0.577726130626463 -0.0307457791134037 -0.252315498144517
 0.370476924952323 0.207961168023045 0.141191944914856
 0.239557871856186 0.634703430348012 0.11531860017354
 -0.248794576521375 -0.140095495936539 0.171002481081129
 0.501736030061973 -0.952718994888221 0.0326569803720576
 -0.581581480096302 0.205490164137525 0.0293879202876452
 0.393562502389985 0.105475973815361 -0.129014194169887
 0.481489528882206 -0.193676329249997 0.175490208201219
 0.530012839616983 -0.34220733484807 -0.0626018276388011
 -0.413268072733234 -0.643969523625103 0.205650014981721
 0.435778808810479 0.374701514845161 0.0698318789958913
 0.251503718102935 0.263506630247386 0.248843620990116
 -0.0786914890131112 -0.47057706255821 -0.534757617965962
 0.472080402034467 0.172462740634048 0.0371596747429066
 0.339571313465769 -0.449114249525275 -0.363851022897441
 -0.70338865966189 0.147001981646621 -0.204628294687296
 0.218302891674374 -0.486319959403767 -0.559141930279559
 -0.270520157175233 0.545307364481018 0.0841817996396779
 0.334254822844712 -0.724345549988418 0.0276614919893548
 0.0561814430631992 0.0124044276080985 0.58073224579494
 0.469593601083854 -0.393163891352852 -0.078823106591406
 -0.148631526413239 0.434657517784291 -0.131739448012311
 -0.0303102694527921 0.541877720604298 -0.355972784057454
 -0.171295671618693 -0.789861165225837 0.431766363625843
 -0.387415900067103 -0.148323722647708 -0.333940270202525
 0.528906963758671 -0.594460766666903 -0.111384881360835
 -0.318473916885578 0.21468812008534 -0.245053120610018
 0.333845620824805 0.129846087319439 -0.210313359400129
 0.384486398638406 -0.216134865379523 -0.219286753967075
 0.138960458501624 -0.150805762129308 -0.541059517711464
 0.401674724499468 -0.624235558605869 -0.228538330334892
 0.539516400093309 0.0483853570295283 0.294544356030569
 -0.180326057366307 -0.997717980894968 -0.164558544766983
 0.114265240472725 0.482728540129745 0.256847726861575
 0.167129703002298 -0.148998945048732 0.60046884443213
 0.0741235102746938 0.482728540129745 0.162042807120446
 -0.162084381582638 -0.171724204385141 -0.29438855284384
 0.562403399028535 -0.807686554451174 0.363750882187966
 0.326975731661446 -0.0846827677196271 -0.490034550797332
 -0.358488564368865 0.36044604640304 0.00931666872537334
 0.525954121746406 -0.282216982133319 0.0553975390378329
 0.404980799369473 -0.562279235699478 -0.490564892944118
 0.496342476067818 -0.94580681466034 -0.141632229411138
 -0.22342881129785 -0.702000772061289 -0.225887990732046
 0.294861735255554 -1.00011009848665 0.0987664914838858
 -0.255930167231768 -0.220783415619965 0.174651891993286
 0.230200025033181 -0.41068678354698 -0.346433124676233
 -0.455899220318053 -0.683829414535261 -0.24390877232591
 -0.303258452363891 -0.411503270047432 0.0796109587000987
 -0.46683127095825 -0.757558581386202 -0.151461531187808
 0.232671513108644 -0.0747587714396065 -0.374423968554187
 0.129790551346131 -0.0232151527941032 -0.526513640107366
 -0.0508882615512675 0.0575745537145954 0.552934747019016
 0.171812193735753 0.129759490092814 -0.564717414451408
 0.366746355916098 -0.342373351314356 -0.256655176947879
 0.208726340161714 0.2867756006279 0.366335174616925
 -0.209440355461835 0.195626357139996 0.00979869663441036
 0.479638545371159 0.134754839230386 -0.349361240934442
 0.414675201771858 0.0722815547889104 0.0846041217747063
 0.649772120032903 -0.36699344975181 -0.318791180578597
 0.478938488669872 0.254453192605494 0.32405891117205
 0.152122357751469 -0.680808233443121 -0.347537308840364
 0.454322315743037 -0.748372838892312 0.117009955780019
 0.537551419205249 0.0379407408653588 0.396566930904784
 -0.0615822911357544 0.13294301446701 -0.474078535404466
 -0.123946095358076 -0.83877570367767 -0.406318476343311
 -0.0410233667686337 0.353960703148885 -0.221257182579085
 0.533785157305414 -0.343160553479177 -0.371282260627754
 -0.446817818404936 -0.630734607120306 -0.280989865734663
 -0.0121290991765528 0.292884857556052 0.52894180999691
 0.239497112638134 -0.3660375629308 0.339124218707393
 0.0966841573266128 -0.701240735224132 0.406568373438752
 0.486002071128871 0.085581328739083 0.00584268517208223
 -0.0723864420175392 -0.0342853123866489 0.267914617293574
 0.389733565102059 0.370579543414019 0.180807702809619
 -0.347327093520479 0.304260048692868 0.141873215348007
 -0.477074291576936 -0.00755908727269418 0.0941207702185218
 0.528041055553392 -0.461533708522095 -0.389000667914254
 -0.2146443248332 0.434657517784291 0.180113891748802
 0.458913906168957 0.128939844016779 -0.122434332847519
 -0.0473034974346496 -0.541776024625757 0.6095001211726
 -0.211000219710405 -0.129250012765375 -0.0937686264118387
 0.44816664653383 -0.716204525793999 -0.216586587270807
 0.499602501519855 -0.0132574521395275 -0.00355595631097801
 0.227813918983837 0.279651872238871 -0.324288485831522
 0.426641866396769 -0.910133588473597 -0.051230594390744
 0.273108683944816 0.0982910146843698 0.485328820542959
 -0.146629786993358 0.0964747685221823 -0.509147445677483
 0.443761317871728 0.248807477844015 0.440522912383348
 -0.0345416650138032 -0.130344579840512 -0.58192127820414
 0.426153360774972 -0.469308233708915 0.196133363421823
 0.00114373313157138 -0.259250722661342 -0.60330184561786
 0.155514183962689 -0.100402207306426 -0.534528606740322
 0.401782014103233 0.482728540129745 0.0583812573017751
 -0.179134232641468 -0.624228720466676 -0.310359872514699
 0.383265124259715 0.634703430348012 0.185044234524801
 0.296376793722718 0.135685373339579 0.242360338994945
 -0.013709056245481 -0.268462099864812 0.393542482062708
 0.242775012828875 -0.715781576931342 0.234513127423593
 0.280039053287636 -0.727649502813522 -0.351322139000401
 0.481623148756566 -0.502894026041239 -0.0423021207622463
 0.51574473623059 -0.22032023596594 -0.459431276622898
 0.6572002056457 -0.054146664069556 0.235464921005066
 -0.236714521977652 -0.543904026466315 -0.118427077637056
 0.19484540616482 -0.526820785616758 -0.361722393375601
 0.368981444385107 0.374199225440994 -0.215344510806275
 -0.454498976852742 -0.526689438324374 -0.039128459347671
 -0.197911984934503 -0.678085685642498 -0.274928888272106
 0.398104927452441 -0.204975225635449 0.292724525885833
 -0.0780188246494233 -0.748694859208291 -0.300475269410039
 -0.0624326929731838 -0.390862514648818 -0.316901728266202
 0.500139336209203 -0.6364221063248 -0.181164881166727
 0.58146454107513 -0.663029509848364 -0.314358432088058
 0.364858418784513 -0.461634871632629 0.576171366131836
 0.108452069031476 -1.00011009848665 -0.10048727626961
 -0.040103659346784 0.282682627566024 -0.0450191766735678
 -0.0423345383344413 -0.607566213858292 0.609166739638873
 -0.397104352032032 -0.0153908197886987 0.138325330465722
 -0.361080873905285 0.269267076208707 -0.123807280958942
 -0.72211505519154 0.0240696352909548 0.0717355721567772
 -0.342184921924478 -0.449673911135411 0.430887057405401
 0.353575907135047 0.206296821318336 -0.168607615995923
 -0.0104634231703836 0.434657517784291 0.135259782750908
 -0.607935119613922 0.0135718695158698 -0.0158492593328417
 0.411847265439943 -0.40080386133218 -0.304263912980753
 0.657869956063925 -0.0658920663227944 0.237506812229572
 -0.368621228357689 -0.828921278521649 0.0140348044097491
 -0.245637604328001 -0.362989585228542 0.0358594176776751
 0.158100601953142 0.360126355764214 0.53152878996471
 0.152337680833865 0.388242108969435 -0.324552057170346
 -0.350068215291841 -0.151441920939661 -0.384770958884325
 0.665524899371816 -0.263655118242308 -0.0520462473493263
 0.131611443647462 0.434657517784291 0.0573103029842914
 0.664289893862512 -0.0585449245074887 0.219676832993499
 0.388424850766801 -0.680893785198293 0.312694515902643
 -0.121845267596197 0.434657517784291 0.280282558224359
 0.510089108910288 -0.0931801582606961 -0.00472040008338245
 0.208825726590847 -0.475982954023826 -0.56031885561413
 0.430846270147128 0.479425045693356 0.0733799637814525
 -0.302975384463801 -0.326071598691138 -0.0383633353902178
 -0.181626069729739 -0.0920678710827138 -0.157215183088773
 0.306596584741213 -0.473285212931258 0.314733937216303
 0.203345565788683 -0.116710060673961 -0.324562307240735
 -0.32267439691735 -0.409017389039597 -0.358400932454899
 -0.210100730748471 -0.684852418027719 0.258396944876649
 0.415235696588679 -0.553094597089459 -0.308198978324451
 -0.34827159870062 0.389537268658207 -0.0661369561461008
 -0.180086902617244 -0.80006418592293 -0.0449052852222359
 0.426410261091716 -0.690617861695484 -0.145094369724785
 -0.00435780269265479 0.0214435186455003 0.570096778798099
 -0.270377849464975 -0.575151459246509 -0.192596260596987
 -0.218052671056586 -0.140648249705411 -0.223624763341251
 -0.365526815788696 0.285478438915714 -0.0978325499486609
 -0.292065909834299 0.158323280217075 -0.297408458609219
 0.387004578848029 0.496923468415989 -0.114339522977033
 0.379667083958306 0.0284267480956269 -0.517206670748611
 -0.480787184993074 -0.0857558346564668 0.0487609743114696
 -0.54905603054314 0.412777345138898 0.0985537111810585
 0.312176865444757 -0.681399711961417 0.287192420076686
 0.0872955862533463 -0.710348945107026 0.553546895190971
 -0.707904823754495 0.25555765535192 -0.00869712860878562
 0.0214126328788742 0.434657517784291 -0.387391439018133
 0.698956924375347 -0.193926416050887 -0.164639285260875
 -0.460267820309546 0.148785543116283 -0.00623637316885893
 -0.377310475909525 0.097812117807705 0.0095534145880493
 0.150860649409539 0.482728540129745 0.0250247606435697
 0.303342861877595 0.458579454843931 0.217534093202937
 -0.372712130956219 0.227080014609807 -0.165833143545576
 0.289804877520357 -0.402124090682939 0.599938584044357
 -0.251759177474155 0.205868977846604 -0.333538046460862
 -0.217308179893692 0.350772712369122 0.0202513133115324
 0.413031031174975 0.12998323427422 -0.209897271273133
 -0.255766955040288 0.0218603316298716 -0.367210580561905
 0.277004251567483 -0.591109331297633 0.545472425364022
 -0.137581288096128 -0.731294557417571 0.288208823011409
 0.166819602510637 -0.384759392468498 0.421214898347926
 0.12444719230931 -0.576928210520393 -0.430052239394087
 0.437390520211937 -0.0717316003746266 0.222544668923398
 0.220022926064573 -0.862484037394159 0.523951538114159
 0.30687852334538 -0.582204969274079 -0.600059849952952
 -0.175633864962304 -0.908974972702507 0.141575824047664
 0.110194950649095 0.282728540129745 0.190268201569506
 0.173770749457047 -0.875296380851244 0.414208444830627
 -0.185416104025625 0.514679831885722 0.0881535051632204
 -0.302319386360873 -0.321894421095854 0.0442501589992886
 0.00820607036670614 -0.767738855141598 -0.586467305213572
 0.116792204395035 0.175412318192203 0.358818643590392
 0.284895039267174 -0.719248497337523 0.588097025515085
 0.3536322192423 0.0572694835125994 -0.289585347220687
 0.490168816750243 -0.729944949772982 0.0818592819580766
 -0.065926861007289 -1.00006418592293 -0.0363874003578523
 -0.17874715611275 -0.411822244988927 0.48343547119641
 0.0443815733118189 0.267683521193326 -0.337885299038345
 0.583310723756308 -0.901106497914984 -0.139766948046709
 0.274925403170259 0.0819153793271891 0.266178411190898
 0.027317236034326 0.0790353673447885 -0.567540239220284
 0.27294985474379 0.634657517784291 0.0647033689902419
 0.330791252718355 -0.700396120282384 -0.345620116717628
 0.266489879344298 -0.684118469990823 0.385667710309532
 -0.114510794145702 0.357756539319827 -0.373852509730157
 0.0511153313462108 0.282728540129745 0.285903163482641
 -0.374970607812293 0.372877626667058 0.207159255660009
 -0.190058633733925 -0.101486445214763 -0.253486765627059
 -0.00729007674811038 0.482682627566024 -0.053274142093807
 -0.564516162278472 0.17017402205145 -0.0142591822161769
 -0.0106931547771398 -0.659612811142033 0.611644131727728
 0.466482006360543 -0.259987725929396 -0.00843559944332428
 -0.079320679196712 0.0274657189701269 0.253961574170003
 -0.186780707980665 -0.678664837833544 0.178798805393331
 0.731077074796022 -0.293815401984028 0.0206473699689635
 -0.266975010878841 -0.718073801776619 -0.105440938882101
 0.447939995263016 -0.131086568040966 0.219859539438087
 -0.219019670914166 0.297074469114164 -0.347783827269493
 0.582503978953608 -0.411224530997712 -0.414978887735258
 0.00184016010253264 0.529261703001774 -0.318529402804535
 0.399426292890359 -0.701307730515198 -0.290717635046935
 0.445024098704906 -0.397857933932668 0.151865055442517
 -0.318322871475518 0.233646494965837 0.239058698552467
 0.312384846545734 -0.698484146491814 0.254549102627597
 0.317250025302445 -0.31653638696379 0.294076584903932
 0.296966577886934 -0.593948439029688 0.389467272475717
 0.0759395938952037 0.032729153414742 0.315438424011561
 0.0883466475965118 -0.857498336062683 0.538428232571749
 0.0768409358379232 -0.694781089914243 -0.40807811120856
 0.599110451524479 0.294681781757782 -0.245635112883437
 0.358478130461701 -0.719556309821191 -0.040063557523978
 0.646235238122572 -0.110314988658009 0.0768708868639616
 0.34283270223736 0.482682627566024 0.192885247991302
 0.0423609025133989 0.089643159942906 -0.301347388167245
 0.221002995656072 0.335625080214166 0.31749485547827
 -0.241129861435542 -0.613752921248609 -0.0966331657341036
 0.196299283461024 -0.701302779198117 0.304381142181743
 0.593062458757146 0.337192734541411 -0.2434027900174
 0.367512121003225 0.390313617698781 -0.205847196034265
 0.161994046523898 0.282728540129745 -0.33258875766512
 0.00661856399001024 0.0161555276726608 -0.301584209562589
 0.271159898344571 0.0675747251355768 0.339695301922689
 -0.36814187618053 0.193118178034962 0.157523744477102
 0.322060537801132 -0.194531492398306 0.275979825693057
 -0.191785980985674 -0.501454267221657 0.206131189447939
 0.208023772153649 -0.61557521801873 -0.621241780335625
 0.568438644306527 0.273928103831291 -0.303785237517706
 -0.053281115601506 -0.80011009848665 -0.0348150203198777
 0.254939633803963 -0.449845599935902 0.549716909110141
 0.280383204916438 0.434703430348012 0.297804157011887
 0.0438163198408963 -0.129344849071708 -0.331489724276831
 0.374543065976673 0.265152117016525 0.226977953479691
 -0.490193535960772 -0.183080609998041 0.047248314782363
 -0.282043666300034 -0.629252512576608 -0.486848240237107
 -0.0791063823206458 0.385168318530445 0.182364265559499
 -0.0139509098506895 -1.00006418592293 0.14144948595762
 0.442598069820928 -0.581943659157248 -0.27793397199016
 -0.0736691806912109 0.419477914829773 0.185513512677734
 -0.41912673319881 0.139584406800321 0.219821569703979
 -0.107158030317622 0.482682627566024 0.134947838410703
 0.534142864698007 0.0721109700671685 -0.393346295820724
 0.651311124853442 0.208886118524084 -0.143441368726758
 0.414730164659664 0.357045114949816 0.317842223635721
 -0.142618545221224 0.417127282657792 -0.0585809922232702
 -0.0966158355111882 -0.691326654549543 0.516116189352879
 -0.50222099335536 0.164501953440157 -0.0292147162745277
 -0.704371362288265 0.0360304694177505 -0.111864274715062
 -0.0504746803414426 -0.022426847100726 -0.349869449105083
 0.531567090127514 -0.295122162212517 -0.00446080774269595
 -0.218291436999216 -0.468026990555877 0.158182222587034
 -0.165158603988009 0.185208465390109 -0.224803219832229
 0.362584686891097 -0.0841520299347846 0.30669231238482
 0.214245716107782 0.0977804249790223 -0.562765977643968
 0.391384353371115 0.282728540129745 0.112476763056837
 -0.567121501747796 0.184476172814451 0.22889413616892
 0.0347507032758899 0.417806612618647 0.453453014739005
 0.0466073771846527 -0.262113165876157 0.345655740055462
 -0.388497955510435 0.124041101671581 0.275607581759385
 -0.161285240113807 0.0282506499405865 -0.261792266813981
 -0.155778179955356 -0.25589403894407 -0.311694811861909
 -0.18336024146724 0.634657517784291 0.0451061771072375
 -0.192363073727482 0.219645890217588 0.0211185087771996
 -0.304397026798834 -0.638555401503668 0.0710475701529704
 0.483844233628948 -0.452372316356286 -0.507600237827075
 -0.474733836010545 -0.0920927738873006 0.0963971186199931
 -0.168745514257792 0.434703430348012 -0.0066373461782042
 0.190962005491132 -0.759645388136109 0.326945416427947
 0.550641887573014 -0.513552832132541 0.366777371619624
 0.523702928654601 -0.699279974346725 -0.00426350975545002
 0.328743984133752 0.224904597512211 -0.195280105791995
 0.298131353500566 -0.61849590155354 -0.319442375133973
 0.394741130033186 -0.660192170768274 0.226657355629106
 0.0778059029742646 -0.240761807400477 -0.549737261079244
 -0.244846717602223 -0.260948056004079 -0.203622532925791
 0.188510935948503 0.634657517784291 0.0169403746671592
 0.565034676575027 0.431905991807788 0.0966312726753621
 0.342854251906013 -0.576353202238497 0.521792205285906
 -0.0688911284223251 -0.181169697397981 -0.577694140191764
 0.428198152705717 0.545261451917298 0.239314835156965
 -0.36350910264966 -0.667730199834697 0.399572581195338
 0.354994827378852 0.634657517784291 0.192817485183841
 -0.0792955673641468 -0.695588820288762 0.362243949591391
 0.401439380418397 0.178581785117453 -0.481229253419148
 -0.481162425939147 -0.082434467397489 0.0354882250974128
 -0.119236681041406 -0.481805151885719 -0.285089460901626
 -0.0640967709585371 -0.197592415789332 -0.296099666223102
 0.616820708849603 0.000458084809648582 0.147210917202904
 0.448575806624116 -0.342458480132097 -0.132909078630166
 -0.308699817771191 0.0710812853503554 -0.0497841461464112
 0.386583947128705 0.262863942509363 -0.403376174118548
 -0.439837307401989 -0.613912271621202 -0.295910654880288
 0.295476919307983 -0.426894880512836 -0.386841306572931
 0.370408440052341 0.630660086180318 0.345495480520674
 0.587588250699821 -0.908928142730138 0.0706703967798497
 0.154841407440751 -0.926512258842416 0.0903906930793536
 0.408398159409958 0.434703430348012 0.11788733735404
 -0.205896943891614 -0.167708161365244 -0.245633901816091
 -0.449544826691734 -0.563589260922077 -0.082218543218471
 -0.067995143467358 -0.256069045257934 0.370402179523029
 0.462670720891101 -0.755533463142034 0.407379761837178
 0.710981363849826 -0.0936466659663814 0.0111240298900538
 0.239991846505442 0.194909945466737 -0.266536765492959
 0.699497677450555 -0.275995115612313 -0.191505604106899
 0.0822731518956641 -0.364789991392461 -0.420804018980615
 -0.204617347349126 -0.240470217636613 0.522729637779947
 0.249685866650149 -0.910197679050675 -0.409076452783715
 0.418059754391109 0.434703430348012 0.18849764499353
 0.467688989672414 -0.63964642750402 -0.236052764112377
 -0.376519622267476 0.276315129546077 0.183777722774568
 -0.351152943044864 0.400561221497122 -0.012155763607482
 0.0696891664988209 -0.67652216518908 0.350945594871087
 0.42505371043529 -0.921625864611468 -0.335948403916137
 -0.197537204858351 0.423917959448246 0.338633593510228
 -0.25888964644377 -0.269660700877711 -0.180020493893182
 0.341399517479555 -0.0764444173149518 0.320571501333026
 0.0675633494301742 -0.571199985540526 0.428232980971355
 -0.293492886285568 -0.933882651656134 0.148434847383819
 -0.269096012993848 -0.0733722667611652 0.0921280419596792
 0.397866882327307 -0.194039059457819 -0.291454200694868
 -0.427205294813445 -0.292346465497858 -0.294797607248505
 0.377430143878785 -0.375510775798499 -0.497161634729391
 0.112304081360963 -1.00006418592293 0.178720016146903
 0.307108503704449 -0.924442615142088 0.0692923131287601
 0.518804123218185 -0.229004990260008 0.0667856139257143
 -0.128458539571144 -0.547622835024223 0.5815969915167
 0.0609135993720691 -0.736382797582073 -0.605455588742898
 -0.177341447018598 -0.831184878950731 -0.479264120097122
 -0.094040821702641 0.482682627566024 0.0395058539547752
 0.621185664326251 -0.00731429103460982 -0.293810479964945
 0.443064775564354 -0.757675692487059 0.0842419917370674
 -0.184657913737455 -0.0130362349888361 0.135626334605772
 -0.0753836223204572 -0.500121383200531 -0.600429649831423
 0.438661467543977 0.434703430348012 0.2161811997563
 -0.551793287474293 0.190736950960642 0.0116028801267395
 -0.0378884081336256 -0.519828429912779 -0.549235651368432
 0.380103993689915 -0.802614086518818 -0.000140899103198505
 -0.0587380135372749 0.374964556559339 -0.279908920217175
 -0.150996178095055 0.282728540129745 -0.118608017478961
 0.573286538196196 0.379444749706054 0.0983370472803106
 -0.196535133365485 0.0701311885628256 -0.410575046659123
 0.484435484942412 -0.537263876602789 0.0192446981277276
 -0.187267703099954 -0.519190266235242 -0.213730726429482
 0.436069292751712 0.282728540129745 -0.114496272720701
 -0.125546677491445 -0.710005846348185 -0.177717392485305
 -0.41338355626749 -0.0751301069729147 0.0864320899450172
 0.497647259252633 -0.202183816449238 0.138504791017187
 0.0744497698754305 -0.686843267480619 0.412143496160121
 -0.333902933093656 0.120190015034661 -0.00992450910264958
 -0.0294197999498504 -0.976440980515718 -0.358781158429483
 -0.408742554764673 0.0569355738251114 -0.258203209007374
 -0.210541424108316 -0.368794481045726 -0.159937304745319
 0.655423024806476 -0.0976925618859981 -0.253230710980333
 0.145364126698964 -0.524046562725798 0.428998947705965
 -0.249739124118412 0.348783481081285 0.225765827131127
 0.154555186569325 0.282728540129745 0.296841668313619
 -0.311525216077952 -0.617532934654951 -0.0400566030298427
 0.27056730595467 0.471011669591571 -0.230663836026734
 0.523025215766932 -0.675302207666508 0.468454681979372
 0.16796853803458 -0.701517248496786 0.310023207346667
 -0.450487481076164 0.18248145430739 0.0162255989261086
 0.24609566658278 -0.43472948765439 0.40609861373444
 -0.362703821484992 0.40811398967499 -0.221907962274497
 -0.0223763921789091 -0.662610517132104 -0.398880225898631
 -0.113868463632898 0.353475759963745 0.145736902959831
 -0.53797129610422 0.0656835188369456 -0.198003992730742
 -0.27018235990859 -0.451969584515487 -0.188696010736745
 -0.304297219164215 -0.596301473624919 -0.0964327054030634
 0.186134020492329 -0.92572051311288 0.159965960735434
 -0.256540233962279 -0.736940885527082 -0.0688397013889437
 0.724500467694205 -0.35534457386526 -0.121356696682059
 0.629147524230507 -0.359015494603673 -0.223935741973292
 0.471336938338365 -0.932373675451086 0.251530507264192
 -0.350439048058321 0.400989717146428 -0.0235406587548974
 0.150510696139221 0.482682627566024 -0.200744756496807
 0.383430128756511 0.270549904451123 -0.215817652042689
 0.687781905752744 -0.812664179173242 0.0116824465913412
 -0.226698386118128 -0.652143096755765 -0.250797321383296
 0.524267199849802 -0.328167290496648 -0.0911861859200541
 0.412705139011198 0.169519712188519 -0.0049762700861447
 0.53590022788722 -0.775534035612868 0.313386630183676
 -0.0632227120939752 -0.314148848693544 0.309620448108308
 0.00342579987293566 0.282728540129745 0.292957647186911
 0.322543224530661 -0.0928033513075954 -0.492898693646653
 0.215072937196862 -0.451412581635164 -0.619577540212606
 -0.00388357864655944 0.345307364481019 0.344858441243118
 0.61211295607865 -0.000477016762249927 -0.164036299448848
 -0.420475797632002 -0.0453110981823199 0.0614540950997739
 -0.165636425723493 0.00966036840112724 0.260736485104693
 0.0570106311928493 -0.529020327254712 0.627966884205936
 0.681565726052235 -0.494967832077734 -0.0482243082336119
 0.445481514607119 -0.173327517974726 0.231522629214309
 0.534102478414279 -0.846195749218077 0.193591032805798
 0.390408140585207 0.31739063325501 -0.00991376033092656
 0.268199514016242 -1.00006418592293 0.0271400878310824
 0.362765169617783 0.545261451917298 0.272582733261623
 0.455891519164496 -0.644233033037147 -0.45197195621162
 0.156269987921728 -1.00006418592293 -0.237304912987768
 0.647174234308539 -0.343107145863461 0.173887271226432
 -0.705198485587769 0.257321704964411 -0.00793043420407946
 0.385491279269106 -0.908515492448143 0.179326790554678
 -0.212431655409725 0.545262240603225 -0.229078203374943
 0.183868565928101 -0.80011009848665 0.287277989323101
 0.477451506641428 -0.479102791828124 -0.0613111160878853
 -0.092105850273319 0.282728540129745 -0.111889024669141
 -0.0523451892881178 -0.564824910818527 0.330267659841557
 0.121032250965866 0.434703430348012 0.258299064862348
 0.132411980000915 0.482682627566024 -0.299047360037032
 -0.277426323060261 -0.219268587314398 -0.116681010665302
 0.395665963444476 -0.705875049873132 0.114993411756831
 -0.231890035998628 -0.750276647054039 0.0715763038481185
 -0.096018875176842 -0.668882927647691 -0.362089728192581
 0.0832441771892478 -0.651742286277985 0.363308819203458
 0.452975654347642 -0.477702065166609 0.144689032172437
 -0.146137212556643 0.346714781297933 0.260632437400093
 0.0161138300523478 0.345307364481019 -0.372008161587907
 0.131145175535249 0.498148129824179 -0.512383810819382
 -0.374020215557691 0.280974044404984 0.126053153932903
 0.16860719966558 -0.80011009848665 -0.102692993118919
 -0.180512448460919 -0.663890058234189 -0.202938786719226
 -0.106049885548267 0.0188683964163231 0.310783477424911
 -0.000695909405740339 -0.237659735067447 0.539021678214938
 0.142452282149465 0.552435563499472 0.507633568451221
 -0.348710330575781 -0.544507203882905 -0.332701289922109
 0.148493434145454 -0.14287040238051 0.338637366773581
 0.0511989793397821 0.486396585461833 0.306290840145973
 -0.488609785365949 0.191862301933812 0.0213593358769625
 -0.214595771558357 -0.695045351682913 0.449457136870565
 -0.0290478420242522 0.360780136122374 0.31368329812844
 0.375540891875933 -0.488189808579474 -0.341009748359055
 0.664701814429565 -0.313661294557822 -0.0909562649827741
 -0.440702623147983 -0.291913953169713 0.0274210834368145
 0.415664460901999 0.33798009394453 0.146268296043346
 0.64347726533588 0.0646313512786447 0.228262203221067
 0.29044099287109 -0.0562353509545995 0.348563057549896
 -0.128648846037954 -0.167814066313689 -0.241660765278435
 0.0342397460370763 0.434703430348012 0.100919549993205
 0.703065616946603 -0.424172549483388 -0.215694784036926
 0.4471671759152 -0.570831427927209 -0.162745836334788
 0.414853243484 -0.00908504963899203 0.118941357736014
 0.433083149665753 -0.0565727511821989 0.0829591255886029
 0.449123248164524 -0.401330086284864 -0.262624141469258
 -0.205111150399628 0.130284692025423 0.469186068237662
 0.210775424205087 0.482682627566024 -0.0789636110255176
 0.133437041995797 -0.250366470688881 -0.350486825031085
 0.524266014035712 -0.698086965873797 9.77157433566019e-05
 0.121561578650832 -0.997508002618164 0.338612709981639
 -0.477081329247905 0.324968907444046 0.174151182669079
 0.651674555472727 -0.210322868853613 0.109771394017999
 -0.219232159967488 0.0575196035024268 0.471483437498799
 -0.290082524735124 -0.692057424203282 -0.46860509789242
 0.259823941132591 -0.515217351390918 -0.405463382863989
 0.595125510154982 -0.133581229479781 -0.246068251891591
 0.269055807576007 -0.626393997310953 -0.608392951553507
 0.423087210025621 0.542137889692625 0.216495812125892
 0.126472374105456 -0.722070082524752 0.233473817449096
 0.658067410905993 -0.705151619275503 0.114379995365003
 0.589529031591721 0.196988575543368 0.142969596138237
 0.48949408260554 -0.222603008207447 -0.163868764619286
 0.427630231896192 0.29606808738368 0.44331274526652
 -0.478718637722138 -0.0758092079232495 0.0146665113459395
 0.535430143280759 -0.359265704587964 0.0223681560567724
 0.476683377907285 0.124662835719613 0.0514831054130098
 -0.635292659954551 0.0641949792493874 -0.114833999010077
 0.105142745993612 0.402549980519946 0.264273714033478
 0.673555715296273 -0.526582457043548 0.113232080655787
 -0.0631739569153092 -0.93325835914546 0.382960346861326
 0.0939517041200255 0.380271580972191 -0.45619487659086
 0.672420413144508 0.191939875925304 -0.01819724105322
 0.229471602506935 -1.00006522224153 0.290984421788321
 -0.109733674233885 0.398152307695079 -0.132770602692369
 0.27597719926869 -0.653160209119354 0.540979333603246
 0.230073709098871 -0.327028500972926 -0.339408346541852
 0.232799448542112 0.282728540129745 -0.315784860762666
 0.326322521532802 0.437651151159925 -0.312712949100522
 0.19393371160218 -0.300048785089986 -0.347268998694399
 0.0596227780004521 -1.00006418592293 -0.00191854147365591
 -0.0352287494873601 -0.719346627093457 -0.19841798368464
 -0.322049054442553 0.412675622622527 0.158900736239029
 0.43462197289331 -0.244269469102311 -0.522551570646673
 0.0929432729313495 -0.926512258842416 -0.133110704066313
 0.636037406831508 0.390837490314158 0.0845578070934782
 -0.207544308879977 -0.69796942745342 -0.0353735885183984
 0.241752433676385 0.497160166309386 -0.49668667899953
 0.386877568550098 0.634657517784291 -0.13057232545951
 -0.334342460761965 0.074665179809668 -0.0249886511248385
 0.503163764996098 -0.567454677402531 0.416713361170624
 0.543776199470752 -0.823310348532268 -0.368808317806948
 -0.125596335911799 0.103404325059297 -0.281295354406185
 0.0714786912176503 -0.900480623013667 0.488461503742179
 -0.218792119783691 -0.7600587722505 0.0356208491827554
 0.678954804341954 -0.656059021009495 0.0079159736728084
 0.0378468484069158 -0.301891787225314 0.40973651930048
 0.607755099396928 -0.728624804017693 -0.358289712386938
 0.605562865628636 0.138029031647048 0.281193784372661
 0.26859424879929 -0.702890843780397 -0.37547140689884
 -0.100008935787717 -0.26687247913578 0.510108121136551
 0.569733986049512 -0.560003130067001 0.343153439598012
 0.46725428666173 0.345307364481019 0.0944427025932196
 0.371456896118965 0.111720571974651 0.508668521129598
 -0.506908651787091 -0.362106431250734 -0.0350764401375481
 0.432356829887858 0.0243758628028277 0.0207924658844635
 0.428615149434106 -1.00006535402298 0.00145973819442331
 0.373818970757702 0.482682627566024 0.20035585080991
 0.204403442068152 0.634657517784291 0.00679375095432874
 -0.33252139152538 -0.862216177665511 -0.293620740453027
 -0.00843560806981271 -0.925484431627425 -0.132429338076571
 0.588337446832066 -0.577910809094956 -0.415031929989516
 0.0353301308273836 0.482682627566025 -0.15988737795059
 0.524557151930482 0.404132953060877 0.219365614115845
 0.185490926835967 0.0842141771858251 -0.302682912846012
 -0.100048010910961 0.434703430348012 0.0828652459791203
 -0.146508403131711 -0.529751457896208 0.263539174698398
 0.348503434514121 -0.80011009848665 -0.158972440409137
 0.384973191078363 0.113055847801313 0.143532082184258
 0.398149901932775 -0.0970777045246139 -0.524807156889077
 0.326746101525432 -0.424438158275029 0.52452336906136
 0.0650877878114057 0.0887138451419122 0.509626660869965
 -0.18334574287456 -0.731780817048088 0.240511807353238
 0.391194185317509 -0.696026550933697 0.198991041281721
 -0.32334030956189 0.18637859409232 -0.245509927665323
 0.585631823118419 -0.509584772923455 0.417785129357382
 -0.100007758262167 -1.00006418592293 -0.0517205304803139
 0.578786414053611 0.206748515705409 -0.306255548642838
 0.492693369378315 -0.418895061806459 -0.195700469903836
 -0.225824174268169 -0.389043321345004 -0.252753104248156
 0.281657396213645 -0.603759782518473 0.394532925402321
 -0.367856946950505 -0.391598288439667 0.397153393450729
 0.216624937238854 -0.0071142341197447 -0.37014542974452
 -0.240937650791204 0.350376914837994 -0.236329930938367
 0.297998167837703 0.108745419983944 -0.24596148162404
 0.00563195476688007 -0.905027913487986 -0.418138624380032
 0.662441497072831 -0.319156434904794 0.107257344291451
 0.401861473320706 0.138319167682061 0.487597016474384
 0.377871806097718 0.41817401333732 0.0286616510256333
 0.455136744170943 0.42515921618814 0.309708800387124
 -0.560784789542375 0.201460801144383 -0.0121916730216176
 -0.167812106479866 -0.503363000859024 0.238069371126671
 -0.0626393983964484 -0.725479250409867 -0.0111336130039869
 0.0281636930969541 0.153616741714629 0.557022578195988
 -0.278690951324735 -0.880591738594467 -0.0988134810255193
 -0.18247469912433 0.282728540129745 -0.0198884415090449
 -0.00554502546363687 -0.559429716443973 0.350380367009821
 0.479478779589116 -0.620417259148851 -0.0440883849195647
 0.285954681093647 -0.10052305985644 -0.57187389563092
 0.742498544281028 -0.524982532596911 0.0546751982791237
 -0.231759276914035 -0.213600333957822 -0.0339471850295477
 -0.197242974011198 0.215352387950055 0.0115180384463462
 0.273160823782434 -0.707498957357133 -0.531544604727567
 -0.385318257294837 -0.194358371169908 -0.34499336819719
 0.523594636946275 0.540984545391302 0.0334888376487126
 0.242980267479989 0.434703430348012 0.106694819616909
 -0.17370440380287 -0.915358397270011 0.00659441655852877
 0.500876101525163 -0.156035245697394 0.11083053013354
 -0.405862402885113 0.389186040721826 -0.0934672603909008
 -0.0395319603956747 0.2368040012706 -0.24432920832044
 -0.0211460901330876 -0.648184444079447 -0.340401790641027
 0.160733626730071 0.127259260270997 0.300658856307153
 0.366473088507798 0.634657517784291 0.227668869729424
 -0.0769214415319079 -0.83594834326152 0.153352269172686
 0.140165906192282 0.282728540129745 -0.136009841647966
 -0.205352763280524 -0.446708666520761 0.468273396454369
 0.0683537919418531 0.634657517784291 -0.10222575255327
 -0.178155249291199 0.05331773810029 0.239238116801906
 -0.734241362431639 0.292720736108058 -0.0403127216215417
 0.256131348744578 0.282728540129745 0.175095736647217
 -0.27557784582575 -0.876181297345916 0.145670618211455
 0.163076959455363 -0.169377808738798 -0.401045691760848
 0.232263023956099 -0.923519072478005 0.192717843356598
 0.482745234259925 -0.175849897297461 0.480935496756189
 -0.230001283007166 0.187453294014535 0.120318883347141
 0.24409503583279 -0.745090680036063 -0.339757354777485
 0.450709366941262 -0.65497865207908 -0.131580824412222
 -0.203595962823655 -0.93188107217559 0.300768655513486
 -0.44075517109183 0.141346865627116 -0.188375890039831
 -0.183428153792093 -0.360958393928851 0.546254686052584
 -0.0441175075012942 -0.69309643718075 0.292913344425071
 -0.178198966783259 -0.0301116237270447 0.439142205680756
 0.460093785656043 -0.441783249260682 0.123608174483621
 -0.482194916947056 0.143370431383923 0.0186963398873604
 -0.419018625388333 -0.85938670525481 0.0673052912241939
 0.0812444924972942 -0.826836170300241 -0.484459797035709
 0.186077896962451 0.309549175491149 -0.47413896326564
 0.339616225836219 -0.131804260069062 -0.490644927477875
 0.336077454626449 -0.0783182118355995 -0.246981418797638
 -0.22055303181338 0.42979269479601 -0.383269903628906
 0.440114567718124 -0.105759396186521 0.080252508274362
 0.219987444663565 -0.31116713002697 0.547579991572615
 -0.306141695325474 -0.497267204341228 0.383243716974913
 -0.10081946952859 0.528640712449127 0.258314056613141
 -0.0636383245202206 0.634657517784291 0.0464732864258054
 0.342074158099777 -0.668874207891944 -0.283503843343971
 0.338768076630992 0.482682627566024 0.216432100271575
 -0.337305171113467 -0.47459227859667 -0.344960051976008
 -0.155527381738951 0.182495819111958 -0.49034353369455
 -0.0185734805522687 -0.930283084472955 0.420279124437072
 0.0915600367023956 0.515866715052726 0.512036190206588
 0.398733011110796 -0.765529693085513 0.524897894017326
 -0.397005864690547 0.388445493772423 0.134687060701515
 -0.275452816280265 -0.283944141982046 0.143674087278939
 0.684474951403591 -0.524537738778774 0.0182416170233832
 0.616339490664192 0.151221175518088 0.0291597203032407
 -0.433830939997856 -0.339692401279535 -0.290958408643435
 0.491175856360167 0.545261451917298 0.0703748924819349
 -0.473094874207089 0.377017888037093 0.112865265530731
 -0.48073052827214 -0.405994010194143 0.192460963319962
 -0.174859287657187 -0.0183839562487552 -0.154597995894421
 0.37736192338498 -0.028938854538343 -0.192270053096975
 -0.366389076714399 -0.179228510448772 -0.256586869249785
 0.357910347343433 -0.648842262097173 0.346293588019327
 0.628561732926255 0.356999107877741 -0.142864324253253
 0.639508417884167 -0.421588498777724 -0.342103165928345
 -0.227991429247184 0.545262781193356 0.210174584328609
 0.500712009851424 0.345307364481019 0.0312841233399582
 -0.329315548779411 0.481001265688218 0.256579637543844
 -0.254224436661597 -0.179876545876731 0.481188245956895
 0.678168393587281 -0.616761299458689 0.0761227931657404
 -0.104186549483817 0.233977756391422 -0.274292974862667
 -0.0858154019071882 -0.527184283237689 0.534234682246645
 -0.403577000559104 -0.188928176566052 -0.174077132885076
 -0.292419240113309 -0.701126597861289 0.00948118178246099
 0.625788505294467 -0.0234709817280179 -0.127094580094225
 -0.36691061115819 -0.339748320178 -0.392616605391641
 -0.243690827137362 -0.780335742532363 0.380712939628343
 0.450367498398271 0.277651039491577 0.07414065271255
 -0.280381545331139 -0.504539472190672 -0.410655489543227
 -0.220396723885425 -0.292412329154887 0.119953978041571
 0.0755570187187185 0.282728540129745 -0.183696204393456
 -0.174738321201775 0.0503678693416545 -0.500968717925425
 -0.203186274896668 0.634657517784291 0.000149171783488486
 -0.200780535234268 0.273181636371317 -0.146445586548485
 -0.281120095359678 -0.905084419013543 -0.278289774745381
 0.0590093995376625 0.482682627566024 -0.176573121449698
 0.317193008015848 -0.558299086716791 -0.309753303221444
 -0.0649530125614637 -0.80011009848665 -0.121319010490341
 0.326689552894848 -0.288948348043279 0.513257967490347
 0.0785156626014272 -0.889824909057414 -0.38086095059922
 0.510295705711943 0.355866378117893 -0.258585742360529
 -0.152637065831888 0.482682627566024 0.0749352318280517
 -0.386870203309754 -0.731510030707032 -0.345600539285153
 0.114537115277573 0.634657517784291 0.00689442912919684
